0 0 0 0 0 0 0 0 0 0 0 0 0 0 0 0 0 0 0 0 0 0 0 0 0 0 0 0 0 0 0 0 0 0 0 0 0 0 0 0 0 0 0 0 0 0 0 0 0 0 0 0 0 0 0 0 0 0 0 0 0 0 2816 2816 2816 2816 2816 2816 2816 2816 2816 2816 2816 2816 2816 2816 2816 2816 2816 2816 2816 2816 2816 2816 2816 2816 2816 2816 2816 2816 2816 2816 2816 2816 2816 2816 2816 2816 2816 2816 2816 2816 2816 2816 2816 2816 2816 476 476 476 476 476 476 476 1011 1032 1032 1032 1032 1032 1030 1029 983 983 983 984 173 173 173 173 173 174 174 174 174 174 174 174 174 174 174 174 174 174 174 174 174 174 174 174 174 174 174 319 2130 2130 2130 2130 2130 2130 2130 2130 2130 2130 2130 2130 2130 2130 2130 2130 2130 2130 2130 2130 2130 2130 2130 2130 2130 2130 2130 2130 2130 2130 2130 2130 2130 2130 2130 2130 2130 2130 2130 2130 2130 2130 2130 2130 2130 2130 2130 2130 2130 2130 2130 2130 2130 2130 2130 2130 2130 2130 2130 2130 2129 2129 2129 2129 2129 2129 2129 2129 2129 1111 1132 1132 1132 1132 1132 1130 1130 1083 1083 1083 1084 171 171 171 171 171 171 171 171 171 171 171 171 171 171 171 171 171 171 171 171 171 171 171 171 171 171 171 171 171 379 2150 2150 2150 2150 2150 2150 2150 2150 2150 2150 2150 2150 2150 2150 2150 2150 2150 2150 2150 2150 2150 2150 2150 2150 2150 2150 2150 2150 2150 2150 2150 2150 2150 2150 2150 2150 2150 2150 2150 2150 2150 2150 2150 2150 2150 2150 2150 2150 2150 2150 2150 2150 2150 2150 2150 2150 2150 2150 2150 2150 2149 2149 2149 2149 2149 2149 2149 2149 2149 2149 2149 2149 165 165 165 1211 1212 1232 1232 1232 1232 1231 1230 1230 1183 1183 1183 1184 165 165 165 165 165 165 165 165 165 165 165 165 165 165 164 164 164 164 164 164 164 164 164 164 164 442 2170 2170 2170 2170 2170 2170 2170 2170 2170 2170 2170 2170 2170 2170 2170 2170 2170 2170 2170 2170 2170 2170 2170 2170 2170 2170 2170 2170 2170 2170 2170 2170 2170 2170 2170 2170 2170 2170 2170 2170 2170 2170 2170 2170 2170 2170 2170 2170 2170 2170 2170 2170 2170 2170 2170 2170 2170 2170 2170 2170 2170 2170 2170 2169 2169 2169 2169 2169 2169 2169 2169 2169 2169 2169 2169 2169 2169 161 161 161 161 161 160 160 1405 1405 1405 1405 1405 1405 1405 1405 1405 1405 1406 1406 1406 1406 1395 1395 1395 1396 1388 1388 1388 1388 1387 1387 1387 1387 1387 1387 1387 1387 1387 1387 1387 1387 1387 1387 1387 1387 1378 1378 1378 1377 1377 1377 1377 1377 1377 1377 1377 1377 1379 1379 1379 1379 1379 1379 1444 1445 1445 1479 1479 1479 1479 1479 1480 1480 1480 1480 1480 1480 1480 1480 2478 2479 2479 2479 2480 2481 2481 2481 2482 2482 2483 2483 2484 2484 2485 2486 2486 2486 2487 2488 2489 2490 2491 2492 2492 2492 2492 2492 2492 2492 2492 2492 2492 2492 2492 2492 2492 2493 2493 2493 2493 2493 2493 2493 2493 2494 2494 2494 2494 2494 2494 2494 0 0 0 0 0 0 0 0 0 0 0 0 0
0 0 0 0 0 0 0 0 0 0 0 0 0 0 0 0 0 0 0 0 0 0 0 0 0 0 0 0 0 0 0 0 0 0 0 0 0 0 0 0 0 0 0 0 0 0 0 0 0 0 0 0 0 0 0 0 0 0 0 0 0 0 0 0 2816 2816 2816 2816 2816 2816 2816 2816 2816 2816 2816 2816 2816 2816 2816 2816 2816 2816 2816 2816 2816 2816 2816 2816 2816 2816 2816 2816 2816 2816 2816 2816 2816 2816 2816 2816 2816 2816 2816 2816 2816 2816 2816 2816 2816 476 476 476 476 476 476 1012 1032 1032 1032 1032 1030 1029 983 983 983 984 173 173 173 173 174 174 174 174 174 174 174 174 174 174 174 174 174 174 174 174 174 174 174 174 174 174 174 319 2130 2130 2130 2130 2130 2130 2130 2130 2130 2130 2130 2130 2130 2130 2130 2130 2130 2130 2130 2130 2130 2130 2130 2130 2130 2130 2130 2130 2130 2130 2130 2130 2130 2130 2130 2130 2130 2130 2130 2130 2130 2130 2130 2130 2130 2130 2130 2130 2130 2130 2130 2130 2130 2130 2130 2130 2130 2130 2130 2130 2130 2130 2130 2130 2129 2129 2129 2129 2129 1111 1132 1132 1132 1132 1132 1130 1130 1083 1083 1083 1084 171 171 171 171 171 171 171 171 171 171 171 171 171 171 171 171 171 171 171 171 171 171 171 171 171 171 171 171 171 379 2150 2150 2150 2150 2150 2150 2150 2150 2150 2150 2150 2150 2150 2150 2150 2150 2150 2150 2150 2150 2150 2150 2150 2150 2150 2150 2150 2150 2150 2150 2150 2150 2150 2150 2150 2150 2150 2150 2150 2150 2150 2150 2150 2150 2150 2150 2150 2150 2150 2150 2150 2150 2150 2150 2150 2150 2150 2150 2150 2150 2150 2150 2150 2150 2149 2149 2149 2149 2149 2149 2149 2149 165 165 165 1211 1212 1232 1232 1232 1232 1232 1231 1230 1229 1183 1183 1184 165 165 165 165 165 165 165 165 165 165 165 165 165 165 165 165 165 164 164 164 164 164 164 164 164 442 2170 2170 2170 2170 2170 2170 2170 2170 2170 2170 2170 2170 2170 2170 2170 2170 2170 2170 2170 2170 2170 2170 2170 2170 2170 2170 2170 2170 2170 2170 2170 2170 2170 2170 2170 2170 2170 2170 2170 2170 2170 2170 2170 2170 2170 2170 2170 2170 2170 2170 2170 2170 2170 2170 2170 2170 2170 2170 2170 2170 2170 2170 2170 2170 2170 2170 2170 2169 2169 2169 2169 2169 2169 2169 2169 2169 2169 2169 161 161 161 161 160 160 1405 1405 1405 1405 1405 1405 1405 1405 1405 1405 1405 1406 1406 1406 1395 1395 1395 1396 1388 1388 1388 1388 1387 1387 1387 1387 1387 1387 1387 1387 1387 1387 1387 1387 1387 1387 1387 1387 1378 1378 1377 1377 1377 1377 1377 1377 1377 1377 1377 1377 1379 1379 1379 1379 1379 1379 1444 1445 1445 1479 1479 1479 1479 1479 1480 1480 1480 1480 1480 1480 1480 1480 2478 2479 2479 2479 2480 2481 2481 2481 2482 2482 2483 2483 2484 2484 2485 2486 2486 2486 2487 2488 2488 2490 2490 2492 2492 2492 2492 2492 2492 2492 2492 2492 2492 2492 2492 2492 2492 2492 2493 2493 2493 2493 2493 2493 2493 2494 2494 2494 2494 2494 2494 2494 0 0 0 0 0 0 0 0 0 0 0 0 0
0 0 0 0 0 0 0 0 0 0 0 0 0 0 0 0 0 0 0 0 0 0 0 0 0 0 0 0 0 0 0 0 0 0 0 0 0 0 0 0 0 0 0 0 0 0 0 0 0 0 0 0 0 0 0 0 0 0 0 0 0 0 0 0 0 0 2816 2816 2816 2816 2816 2816 2816 2816 2816 2816 2816 2816 2816 2816 2816 2816 2816 2816 2816 2816 2816 2816 2816 2816 2816 2816 2816 2816 2816 2816 2816 2816 2816 2816 2816 2816 2816 2816 2816 2816 2816 2816 2816 2816 476 476 476 476 476 1011 1032 1032 1032 1032 1030 1030 983 983 983 983 173 173 174 174 174 174 174 174 174 174 174 174 174 174 174 174 174 174 174 174 174 174 174 174 174 174 174 319 2130 2130 2130 2130 2130 2130 2130 2130 2130 2130 2130 2130 2130 2130 2130 2130 2130 2130 2130 2130 2130 2130 2130 2130 2130 2130 2130 2130 2130 2130 2130 2130 2130 2130 2130 2130 2130 2130 2130 2130 2130 2130 2130 2130 2130 2130 2130 2130 2130 2130 2130 2130 2130 2130 2130 2130 2130 2130 2130 2130 2130 2130 2130 2130 2130 2130 2130 2130 2129 1111 1132 1132 1132 1132 1132 1130 1130 1083 1083 1083 1084 171 171 171 171 171 171 171 171 171 171 171 171 171 171 171 171 171 171 171 171 171 171 171 171 171 171 171 171 171 379 2150 2150 2150 2150 2150 2150 2150 2150 2150 2150 2150 2150 2150 2150 2150 2150 2150 2150 2150 2150 2150 2150 2150 2150 2150 2150 2150 2150 2150 2150 2150 2150 2150 2150 2150 2150 2150 2150 2150 2150 2150 2150 2150 2150 2150 2150 2150 2150 2150 2150 2150 2150 2150 2150 2150 2150 2150 2150 2150 2150 2150 2150 2150 2150 2150 2150 2150 2150 2149 2149 2149 2149 165 165 165 1211 1212 1232 1232 1232 1232 1232 1231 1230 1229 1183 1183 1184 165 165 165 165 165 165 165 165 165 165 165 165 165 165 165 165 165 165 165 164 164 164 164 164 164 442 2170 2170 2170 2170 2170 2170 2170 2170 2170 2170 2170 2170 2170 2170 2170 2170 2170 2170 2170 2170 2170 2170 2170 2170 2170 2170 2170 2170 2170 2170 2170 2170 2170 2170 2170 2170 2170 2170 2170 2170 2170 2170 2170 2170 2170 2170 2170 2170 2170 2170 2170 2170 2170 2170 2170 2170 2170 2170 2170 2170 2170 2170 2170 2170 2170 2170 2170 2170 2170 2170 2169 2169 2169 2169 2169 2169 2169 2169 161 161 161 161 161 160 1405 1405 1405 1405 1405 1405 1405 1405 1405 1405 1405 1406 1406 1406 1395 1395 1395 1396 1388 1388 1388 1387 1387 1387 1387 1387 1387 1387 1387 1387 1387 1387 1387 1387 1387 1387 1387 1387 1378 1378 1377 1377 1377 1377 1377 1377 1377 1377 1377 1377 1379 1379 1379 1379 1379 1379 1443 1445 1445 1479 1479 1479 1479 1479 1479 1480 1480 1480 1480 1480 1480 1480 2478 2479 2479 2479 2480 2480 2481 2481 2482 2482 2482 2483 2484 2484 2485 2486 2486 2486 2487 2488 2488 2490 2490 2492 2492 2492 2492 2492 2492 2492 2492 2492 2492 2492 2492 2492 2492 2492 2493 2493 2493 2493 2493 2493 2493 2494 2494 2494 2494 2494 2494 2494 0 0 0 0 0 0 0 0 0 0 0 0 0
0 0 0 0 0 0 0 0 0 0 0 0 0 0 0 0 0 0 0 0 0 0 0 0 0 0 0 0 0 0 0 0 0 0 0 0 0 0 0 0 0 0 0 0 0 0 0 0 0 0 0 0 0 0 0 0 0 0 0 0 0 0 0 0 0 0 0 0 2816 2816 2816 2816 2816 2816 2816 2816 2816 2816 2816 2816 2816 2816 2816 2816 2816 2816 2816 2816 2816 2816 2816 2816 2816 2816 2816 2816 2816 2816 2816 2816 2816 2816 2816 2816 2816 2816 2816 2816 2816 2816 2816 2816 476 476 476 1011 1032 1032 1032 1032 1030 1030 983 983 983 983 173 174 174 174 174 174 174 174 174 174 174 174 174 174 174 174 174 174 174 174 174 174 174 174 174 174 174 319 320 2131 2131 2131 2131 2131 2131 2131 2131 2131 2131 2131 2131 2131 2131 2131 2131 2131 2131 2131 2131 2131 2131 2131 2131 2131 2131 2131 2131 2131 2131 2131 2131 2131 2131 2131 2131 2131 2131 2131 2131 2131 2131 2131 2131 2131 2131 2131 2131 2131 2131 2131 2131 2131 2131 2131 2131 2131 2131 2131 2131 2131 2131 2131 2131 2131 2131 2131 2131 1111 1132 1132 1132 1132 1132 1132 1130 1083 1083 1083 1083 171 171 171 171 171 171 171 171 171 171 171 171 171 171 171 171 171 171 171 171 171 171 171 171 171 171 171 171 171 379 2151 2151 2151 2151 2151 2151 2151 2150 2150 2150 2150 2150 2150 2150 2150 2150 2150 2150 2150 2150 2150 2150 2150 2150 2150 2150 2150 2150 2150 2150 2150 2150 2150 2150 2150 2150 2150 2150 2150 2150 2150 2150 2150 2150 2150 2150 2150 2150 2150 2150 2150 2150 2150 2150 2150 2150 2150 2150 2150 2150 2150 2150 2150 2150 2150 2150 2150 2150 2150 2150 2150 2150 165 165 165 1211 1211 1232 1232 1232 1232 1232 1231 1230 1229 1183 1183 1183 165 165 165 165 165 165 165 165 165 165 165 165 165 165 165 165 165 165 165 165 165 164 164 164 164 164 2170 2170 2170 2170 2170 2170 2170 2170 2170 2170 2170 2170 2170 2170 2170 2170 2170 2170 2170 2170 2170 2170 2170 2170 2170 2170 2170 2170 2170 2170 2170 2170 2170 2170 2170 2170 2170 2170 2170 2170 2170 2170 2170 2170 2170 2170 2170 2170 2170 2170 2170 2170 2170 2170 2170 2170 2170 2170 2170 2170 2170 2170 2170 2170 2170 2170 2170 2170 2170 2170 2170 2170 2170 2170 2169 2169 2169 2169 161 161 161 161 161 160 1405 1405 1405 1405 1405 1405 1405 1405 1405 1405 1405 1405 1406 1406 1395 1395 1395 1396 1388 1388 1387 1387 1387 1387 1387 1387 1387 1387 1387 1387 1387 1387 1387 1387 1387 1387 1387 1387 1378 1378 1377 1377 1377 1377 1377 1377 1377 1377 1377 1377 1379 1379 1379 1379 1379 1379 1379 1442 1442 1479 1479 1479 1479 1479 1479 1480 1480 1480 1480 1480 1480 1480 2478 2479 2479 2479 2480 2480 2481 2481 2482 2482 2482 2483 2483 2484 2485 2486 2486 2486 2487 2488 2488 2490 2490 2492 2492 2492 2492 2492 2492 2492 2492 2492 2492 2492 2492 2492 2492 2492 2493 2493 2493 2493 2493 2493 2493 2493 2494 2494 2494 2494 2494 2494 0 0 0 0 0 0 0 0 0 0 0 0 0
0 0 0 0 0 0 0 0 0 0 0 0 0 0 0 0 0 0 0 0 0 0 0 0 0 0 0 0 0 0 0 0 0 0 0 0 0 0 0 0 0 0 0 0 0 0 0 0 0 0 0 0 0 0 0 0 0 0 0 0 0 0 0 0 0 0 0 0 0 0 2816 2816 2816 2816 2816 2816 2816 2816 2816 2816 2816 2816 2816 2816 2816 2816 2816 2816 2816 2816 2816 2816 2816 2816 2816 2816 2816 2816 2816 2816 2816 2816 2816 2816 2816 2816 2816 2816 2816 2816 2816 2816 2816 2816 476 1011 1032 1032 1032 1032 1030 1030 983 983 983 983 264 264 264 264 264 264 264 264 264 264 264 264 264 264 264 264 264 264 264 264 264 264 264 264 264 264 264 320 320 2131 2131 2131 2131 2131 2131 2131 2131 2131 2131 2131 2131 2131 2131 2131 2131 2131 2131 2131 2131 2131 2131 2131 2131 2131 2131 2131 2131 2131 2131 2131 2131 2131 2131 2131 2131 2131 2131 2131 2131 2131 2131 2131 2131 2131 2131 2131 2131 2131 2131 2131 2131 2131 2131 2131 2131 2131 2131 2131 2131 2131 2131 2131 2131 2132 2132 2132 2132 1111 1112 1132 1132 1132 1132 1132 1130 1129 1083 1083 1083 171 171 171 171 171 171 171 171 171 171 171 171 171 171 171 171 171 171 171 171 171 171 171 171 171 171 171 171 171 379 380 2151 2151 2151 2151 2151 2151 2151 2151 2151 2151 2151 2151 2151 2151 2151 2151 2151 2151 2151 2151 2151 2151 2151 2151 2151 2151 2151 2151 2151 2151 2151 2151 2151 2151 2151 2151 2151 2151 2151 2151 2151 2151 2151 2151 2151 2151 2151 2151 2151 2151 2151 2151 2151 2151 2151 2151 2151 2151 2151 2151 2151 2151 2151 2151 2151 2151 2151 2151 2151 2152 2152 165 165 165 1211 1211 1232 1232 1232 1232 1232 1232 1230 1230 1183 1183 1183 165 165 165 165 165 165 165 165 165 165 165 165 165 165 165 165 165 165 165 165 165 165 165 164 164 164 443 2171 2171 2171 2171 2171 2171 2171 2171 2171 2171 2171 2171 2171 2171 2171 2171 2171 2171 2171 2171 2171 2171 2171 2171 2171 2171 2171 2171 2171 2171 2171 2171 2171 2171 2171 2171 2171 2171 2171 2171 2171 2171 2171 2171 2171 2171 2171 2171 2171 2171 2171 2171 2171 2171 2171 2171 2171 2170 2170 2170 2170 2170 2170 2170 2170 2170 2170 2170 2170 2170 2170 2170 2170 2170 2170 2170 2170 161 161 161 161 161 160 1405 1405 1405 1405 1405 1405 1405 1405 1405 1405 1405 1405 1406 1406 1406 1395 1395 1395 1388 1387 1387 1387 1387 1387 1387 1387 1387 1387 1387 1387 1387 1387 1387 1387 1387 1387 1387 1387 1378 1377 1377 1377 1377 1377 1377 1377 1377 1377 1377 1377 1379 1379 1379 1379 1379 1379 1379 1442 1442 1442 1479 1479 1479 1479 1479 1480 1480 1480 1480 1480 1480 1480 2477 2479 2479 2479 2480 2480 2481 2481 2482 2482 2482 2483 2483 2484 2485 2486 2486 2486 2487 2488 2488 2490 2490 2492 2492 2492 2492 2492 2492 2492 2492 2492 2492 2492 2492 2492 2492 2492 2493 2493 2493 2493 2493 2493 2493 2493 2494 2494 2494 2494 2494 2494 0 0 0 0 0 0 0 0 0 0 0 0 0
0 0 0 0 0 0 0 0 0 0 0 0 0 0 0 0 0 0 0 0 0 0 0 0 0 0 0 0 0 0 0 0 0 0 0 0 0 0 0 0 0 0 0 0 0 0 0 0 0 0 0 0 0 0 0 0 0 0 0 0 0 0 0 0 0 0 0 0 0 0 0 0 2816 2816 2816 2816 2816 2816 2816 2816 2816 2816 2816 2816 2816 2816 2816 2816 2816 2816 2816 2816 2816 2816 2816 2816 2816 2816 2816 2816 2816 2816 2816 2816 2816 2816 2816 2816 2816 2816 2816 2816 2816 2816 2816 2816 1032 1032 1032 1032 1032 1030 983 983 982 982 982 264 264 264 264 264 264 264 264 264 264 264 264 264 264 264 264 264 264 264 264 264 264 264 264 264 263 263 320 2131 2131 2131 2131 2131 2131 2131 2131 2131 2131 2131 2131 2131 2131 2131 2131 2131 2131 2131 2131 2131 2131 2131 2131 2131 2131 2131 2131 2131 2131 2131 2131 2131 2131 2131 2131 2131 2131 2131 2131 2131 2131 2131 2131 2131 2131 2131 2131 2131 2131 2131 2131 2131 2131 2131 2131 2131 2131 2131 2132 2132 2132 2132 2132 2132 2132 2132 2132 1109 1111 1132 1132 1132 1132 1132 1130 1130 1083 1083 1083 267 267 267 267 267 267 267 267 267 267 267 267 267 267 267 267 267 267 267 267 267 267 267 267 267 267 267 267 266 380 380 2151 2151 2151 2151 2151 2151 2151 2151 2151 2151 2151 2151 2151 2151 2151 2151 2151 2151 2151 2151 2151 2151 2151 2151 2151 2151 2151 2151 2151 2151 2151 2151 2151 2151 2151 2151 2151 2151 2151 2151 2151 2151 2151 2151 2151 2151 2151 2151 2151 2151 2151 2151 2151 2151 2151 2151 2151 2151 2151 2151 2151 2151 2151 2151 2151 2152 2152 2152 2152 2152 2152 165 165 165 1211 1211 1232 1232 1232 1232 1232 1232 1230 1230 1183 1183 1183 165 165 165 165 165 165 165 165 165 165 165 165 165 165 165 165 165 165 165 165 165 165 165 165 165 164 443 2171 2171 2171 2171 2171 2171 2171 2171 2171 2171 2171 2171 2171 2171 2171 2171 2171 2171 2171 2171 2171 2171 2171 2171 2171 2171 2171 2171 2171 2171 2171 2171 2171 2171 2171 2171 2171 2171 2171 2171 2171 2171 2171 2171 2171 2171 2171 2171 2171 2171 2171 2171 2171 2171 2171 2171 2171 2171 2171 2171 2171 2171 2171 2171 2171 2171 2171 2171 2171 2171 2171 2171 2171 2172 2172 2172 2172 161 161 161 161 161 161 1405 1405 1405 1405 1405 1405 1405 1405 1405 1405 1405 1405 1405 1406 1406 1395 1395 1395 1388 1387 1387 1387 1387 1387 1387 1387 1387 1387 1387 1387 1387 1387 1387 1387 1387 1387 1387 1387 1378 1377 1377 1377 1377 1377 1377 1377 1377 1377 1377 1377 1379 1379 1379 1379 1379 1379 1379 1443 1442 1442 1479 1479 1479 1479 1479 1479 1480 1480 1480 1480 1480 1480 2477 2479 2479 2479 2480 2480 2481 2481 2482 2482 2482 2483 2483 2484 2484 2486 2486 2486 2487 2488 2488 2490 2490 2492 2492 2492 2492 2492 2492 2492 2492 2492 2492 2492 2492 2492 2492 2492 2493 2493 2493 2493 2493 2493 2493 2493 2494 2494 2494 2494 2494 2494 0 0 0 0 0 0 0 0 0 0 0 0 0
0 0 0 0 0 0 0 0 0 0 0 0 0 0 0 0 0 0 0 0 0 0 0 0 0 0 0 0 0 0 0 0 0 0 0 0 0 0 0 0 0 0 0 0 0 0 0 0 0 0 0 0 0 0 0 0 0 0 0 0 0 0 0 0 0 0 0 0 0 0 0 0 0 0 2816 2816 2816 2816 2816 2816 2816 2816 2816 2816 2816 2816 2816 2816 2816 2816 2816 2816 2816 2816 2816 2816 2816 2816 2816 2816 2816 2816 2816 2816 2816 2816 2816 2816 2816 2816 2816 2816 2816 2816 2816 2816 1027 1028 1028 1028 1028 1030 1029 982 982 982 982 264 264 264 264 264 264 264 264 264 264 264 264 264 264 264 264 264 264 264 264 264 264 264 264 263 263 263 320 320 2131 2131 2131 2131 2131 2131 2131 2131 2131 2131 2131 2131 2131 2131 2131 2131 2131 2131 2131 2131 2131 2131 2131 2131 2131 2131 2131 2131 2131 2131 2131 2131 2131 2131 2131 2131 2131 2131 2131 2131 2131 2131 2131 2131 2131 2131 2131 2131 2131 2131 2131 2131 2131 2131 2132 2132 2132 2132 2132 2132 2132 2132 2132 2132 2132 2132 2132 2132 1110 1128 1128 1128 1128 1128 1130 1130 1083 1082 1082 1082 267 267 267 267 267 267 267 267 267 267 267 267 267 267 267 267 267 267 267 267 267 267 267 267 267 266 266 266 266 380 2151 2151 2151 2151 2151 2151 2151 2151 2151 2151 2151 2151 2151 2151 2151 2151 2151 2151 2151 2151 2151 2151 2151 2151 2151 2151 2151 2151 2151 2151 2151 2151 2151 2151 2151 2151 2151 2151 2151 2151 2151 2151 2151 2151 2151 2151 2151 2151 2151 2151 2151 2151 2151 2151 2151 2151 2151 2151 2151 2151 2152 2152 2152 2152 2152 2152 2152 2152 2152 2152 2152 272 272 272 272 1211 1232 1232 1232 1232 1232 1232 1230 1230 1183 1183 1182 272 272 272 272 272 272 272 272 272 272 272 272 272 272 272 272 272 272 272 272 272 272 272 272 271 271 443 2171 2171 2171 2171 2171 2171 2171 2171 2171 2171 2171 2171 2171 2171 2171 2171 2171 2171 2171 2171 2171 2171 2171 2171 2171 2171 2171 2171 2171 2171 2171 2171 2171 2171 2171 2171 2171 2171 2171 2171 2171 2171 2171 2171 2171 2171 2171 2171 2171 2171 2171 2171 2171 2171 2171 2171 2171 2171 2171 2171 2171 2171 2171 2171 2171 2171 2171 2171 2171 2172 2172 2172 2172 2172 2172 2172 2172 276 276 276 276 276 276 1322 1405 1405 1405 1405 1405 1405 1405 1405 1405 1405 1405 1405 1405 1406 1395 1395 1395 1387 1387 1387 1387 1387 1387 1387 1387 1387 1387 1387 1387 1387 1387 1387 1387 1387 1387 1387 1387 1377 1377 1377 1377 1377 1377 1377 1377 1377 1377 1377 1377 1379 1379 1379 1379 1379 1379 1379 1443 1442 1441 1479 1479 1479 1479 1479 1479 1480 1480 1480 1480 1480 1480 2477 2479 2479 2479 2480 2480 2481 2481 2482 2482 2482 2483 2483 2484 2484 2486 2486 2486 2487 2487 2488 2490 2490 2491 2492 2492 2492 2492 2492 2492 2492 2492 2492 2492 2492 2492 2492 2492 2493 2493 2493 2493 2493 2493 2493 2493 2494 2494 2494 2494 2494 2494 0 0 0 0 0 0 0 0 0 0 0 0 0
0 0 0 0 0 0 0 0 0 0 0 0 0 0 0 0 0 0 0 0 0 0 0 0 0 0 0 0 0 0 0 0 0 0 0 0 0 0 0 0 0 0 0 0 0 0 0 0 0 0 0 0 0 0 0 0 0 0 0 0 0 0 0 0 0 0 0 0 0 0 0 0 0 0 0 0 2816 2816 2816 2816 2816 2816 2816 2816 2816 2816 2816 2816 2816 2816 2816 2816 2816 2816 2816 2816 2816 2816 2816 2816 2816 2816 2816 2816 2816 2816 2816 2816 2816 2816 2816 2816 2816 2816 2816 2816 1010 1028 1028 1028 1028 1020 1020 982 982 982 982 264 264 264 264 264 264 264 264 264 264 264 264 264 264 264 264 264 264 264 264 264 264 264 263 263 263 263 321 320 2131 2131 2131 2131 2131 2131 2131 2131 2131 2131 2131 2131 2131 2131 2131 2131 2131 2131 2131 2131 2131 2131 2131 2131 2131 2131 2131 2131 2131 2131 2131 2131 2131 2131 2131 2131 2131 2131 2131 2131 2131 2131 2131 2131 2131 2131 2131 2131 2131 2131 2132 2132 2132 2132 2132 2132 2132 2132 2132 2132 2132 2132 2132 2132 2132 2132 2132 2132 1110 1128 1128 1128 1128 1128 1130 1130 1082 1082 1082 1082 267 267 267 267 267 267 267 267 267 267 267 267 267 267 267 267 267 267 267 267 267 267 267 266 266 266 266 266 266 380 380 2151 2151 2151 2151 2151 2151 2151 2151 2151 2151 2151 2151 2151 2151 2151 2151 2151 2151 2151 2151 2151 2151 2151 2151 2151 2151 2151 2151 2151 2151 2151 2151 2151 2151 2151 2151 2151 2151 2151 2151 2151 2151 2151 2151 2151 2151 2151 2151 2151 2151 2151 2151 2151 2151 2151 2152 2152 2152 2152 2152 2152 2152 2152 2152 2152 2152 2152 2152 2152 2152 2152 272 272 272 1210 1228 1228 1228 1228 1228 1228 1230 1230 1183 1182 1182 272 272 272 272 272 272 272 272 272 272 272 272 272 272 272 272 272 272 272 272 272 272 271 271 271 271 443 2171 2171 2171 2171 2171 2171 2171 2171 2171 2171 2171 2171 2171 2171 2171 2171 2171 2171 2171 2171 2171 2171 2171 2171 2171 2171 2171 2171 2171 2171 2171 2171 2171 2171 2171 2171 2171 2171 2171 2171 2171 2171 2171 2171 2171 2171 2171 2171 2171 2171 2171 2171 2171 2171 2171 2171 2171 2171 2171 2171 2171 2171 2171 2171 2172 2172 2172 2172 2172 2172 2172 2172 2172 2172 2172 2172 2172 276 276 276 276 276 276 1322 1322 1322 1322 1322 1322 1322 1322 1405 1405 1405 1405 1405 1405 1406 1395 1312 1312 1299 1300 1300 1300 1300 1300 1300 1300 1300 1300 1300 1300 1300 1300 1300 1300 1300 1300 1300 1300 1324 1323 1377 1377 1377 1377 1377 1377 1377 1377 1377 1377 1377 1379 1379 1379 1379 1379 1379 1379 1441 1441 1479 1479 1479 1479 1479 1479 1480 1480 1480 1480 1480 1480 2477 2478 2479 2479 2480 2480 2481 2481 2482 2482 2482 2483 2483 2484 2484 2486 2486 2486 2487 2487 2488 2490 2490 2491 2492 2492 2492 2492 2492 2492 2492 2492 2492 2492 2492 2492 2492 2492 2492 2493 2493 2493 2493 2493 2493 2493 2494 2494 2494 2494 2494 2494 0 0 0 0 0 0 0 0 0 0 0 0 0
0 0 0 0 0 0 0 0 0 0 0 0 0 0 0 0 0 0 0 0 0 0 0 0 0 0 0 0 0 0 0 0 0 0 0 0 0 0 0 0 0 0 0 0 0 0 0 0 0 0 0 0 0 0 0 0 0 0 0 0 0 0 0 0 0 0 0 0 0 0 0 0 0 0 0 0 0 0 2816 2816 2816 2816 2816 2816 2816 2816 2816 2816 2816 2816 2816 2816 2816 2816 2816 2816 2816 2816 2816 2816 2816 2816 2816 2816 2816 2816 2816 2816 2816 2816 2816 2816 2816 2816 2816 2816 2816 1027 1028 1028 1028 1019 1020 981 982 982 982 982 264 264 264 264 264 264 264 264 264 264 264 264 264 264 264 264 264 264 264 264 263 263 263 263 263 263 263 320 320 2131 2131 2131 2131 2131 2131 2131 2131 2131 2131 2131 2131 2131 2131 2131 2131 2131 2131 2131 2131 2131 2131 2131 2131 2131 2131 2131 2131 2131 2131 2131 2131 2131 2131 2131 2131 2131 2131 2131 2131 2131 2131 2131 2131 2132 2132 2132 2132 2132 2132 2132 2132 2132 2132 2132 2132 2132 2132 2132 2132 2132 2132 2132 2132 2132 2132 2132 1109 1127 1128 1128 1128 1128 1120 1120 1082 1082 1082 1082 267 267 267 267 267 267 267 267 267 267 267 267 267 267 267 267 267 267 267 267 266 266 266 266 266 266 266 266 266 381 380 2151 2151 2151 2151 2151 2151 2151 2151 2151 2151 2151 2151 2151 2151 2151 2151 2151 2151 2151 2151 2151 2151 2151 2151 2151 2151 2151 2151 2151 2151 2151 2151 2151 2151 2151 2151 2151 2151 2151 2151 2151 2151 2151 2151 2151 2151 2151 2151 2151 2151 2152 2152 2152 2152 2152 2152 2152 2152 2152 2152 2152 2152 2152 2152 2152 2152 2152 2152 2152 2152 2152 272 272 272 1210 1210 1228 1228 1228 1228 1228 1230 1230 1182 1182 1182 1182 272 272 272 272 272 272 272 272 272 272 272 272 272 272 272 272 272 272 271 271 271 271 271 271 271 444 2171 2171 2171 2171 2171 2171 2171 2171 2171 2171 2171 2171 2171 2171 2171 2171 2171 2171 2171 2171 2171 2171 2171 2171 2171 2171 2171 2171 2171 2171 2171 2171 2171 2171 2171 2171 2171 2171 2171 2171 2171 2171 2171 2171 2171 2171 2171 2171 2171 2171 2171 2171 2171 2171 2171 2171 2171 2171 2171 2172 2172 2172 2172 2172 2172 2172 2172 2172 2172 2172 2172 2172 2172 2172 2172 2172 2172 276 276 276 276 276 276 1322 1322 1322 1322 1322 1322 1322 1322 1322 1322 1322 1322 1322 1322 1322 1312 1312 1312 1299 1299 1300 1300 1300 1300 1300 1300 1300 1300 1300 1300 1300 1300 1300 1300 1300 1300 1300 1300 1324 1323 1323 1323 1377 1377 1377 1377 1377 1377 1377 1377 1377 1379 1379 1379 1379 1379 1379 1379 1379 1379 1479 1479 1479 1479 1479 1479 1479 1480 1480 1480 1480 1480 2477 2478 2479 2479 2480 2480 2481 2481 2482 2482 2482 2483 2483 2484 2484 2485 2486 2486 2487 2487 2488 2490 2490 2491 2492 2492 2492 2492 2492 2492 2492 2492 2492 2492 2492 2492 2492 2492 2492 2493 2493 2493 2493 2493 2493 2493 2494 2494 2494 2494 2494 2494 0 0 0 0 0 0 0 0 0 0 0 0 0
0 0 0 0 0 0 0 0 0 0 0 0 0 0 0 0 0 0 0 0 0 0 0 0 0 0 0 0 0 0 0 0 0 0 0 0 0 0 0 0 0 0 0 0 0 0 0 0 0 0 0 0 0 0 0 0 0 0 0 0 0 0 0 0 0 0 0 0 0 0 0 0 0 0 0 0 0 0 0 0 2816 2816 2816 2816 2816 2816 2816 2816 2816 2816 2816 2816 2816 2816 2816 2816 2816 2816 2816 2816 2816 2816 2816 2816 2816 2816 2816 2816 2816 2816 2816 2816 2816 2816 2816 2816 2816 1010 1027 1028 1028 1028 1020 1020 982 982 982 982 264 264 264 264 264 264 264 264 264 264 264 264 264 264 264 264 264 264 264 263 263 263 263 263 263 263 263 321 320 2131 2131 2131 2131 2131 2131 2131 2131 2131 2131 2131 2131 2131 2131 2131 2131 2131 2131 2131 2131 2131 2131 2131 2131 2131 2131 2131 2131 2131 2131 2131 2131 2131 2131 2131 2131 2131 2131 2131 2131 2132 2132 2132 2132 2132 2132 2132 2132 2132 2132 2132 2132 2132 2132 2132 2132 2132 2132 2132 2132 2132 2132 2132 2132 2132 2132 2132 2132 1110 1127 1128 1128 1128 1128 1120 1081 1082 1082 1082 267 267 267 267 267 267 267 267 267 267 267 267 267 267 267 267 267 267 266 266 266 266 266 266 266 266 266 266 266 266 380 2151 2151 2151 2151 2151 2151 2151 2151 2151 2151 2151 2151 2151 2151 2151 2151 2151 2151 2151 2151 2151 2151 2151 2151 2151 2151 2151 2151 2151 2151 2151 2151 2151 2151 2151 2151 2151 2151 2151 2151 2151 2151 2151 2151 2151 2151 2152 2152 2152 2152 2152 2152 2152 2152 2152 2152 2152 2152 2152 2152 2152 2152 2152 2152 2152 2152 2152 2152 2152 2152 2152 272 272 272 1209 1210 1227 1228 1228 1228 1228 1220 1220 1181 1182 1182 1182 272 272 272 272 272 272 272 272 272 272 272 272 272 272 272 272 271 271 271 271 271 271 271 271 271 271 443 2171 2171 2171 2171 2171 2171 2171 2171 2171 2171 2171 2171 2171 2171 2171 2171 2171 2171 2171 2171 2171 2171 2171 2171 2171 2171 2171 2171 2171 2171 2171 2171 2171 2171 2171 2171 2171 2171 2171 2171 2171 2171 2171 2171 2171 2171 2171 2171 2171 2171 2171 2171 2171 2172 2172 2172 2172 2172 2172 2172 2172 2172 2172 2172 2172 2172 2172 2172 2172 2172 2172 2172 2172 2172 2172 2172 2172 276 276 276 276 275 275 1322 1322 1322 1322 1322 1322 1322 1322 1322 1322 1322 1322 1322 1321 1312 1312 1312 1311 1299 1299 1299 1300 1300 1300 1300 1300 1300 1300 1300 1300 1300 1300 1300 1300 1300 1300 1300 1300 1324 1323 1323 1323 1323 1377 1377 1377 1377 1377 1377 1377 1379 1379 1379 1379 1379 1379 1379 1379 1379 1479 1479 1479 1479 1479 1479 1479 1480 1480 1480 1480 1480 2477 2478 2479 2479 2480 2480 2481 2481 2482 2482 2482 2483 2483 2484 2484 2485 2486 2486 2486 2487 2488 2489 2490 2491 2492 2492 2492 2492 2492 2492 2492 2492 2492 2492 2492 2492 2492 2492 2492 2493 2493 2493 2493 2493 2493 2493 2494 2494 2494 2494 2494 2494 0 0 0 0 0 0 0 0 0 0 0 0 0
0 0 0 0 0 0 0 0 0 0 0 0 0 0 0 0 0 0 0 0 0 0 0 0 0 0 0 0 0 0 0 0 0 0 0 0 0 0 0 0 0 0 0 0 0 0 0 0 0 0 0 0 0 0 0 0 0 0 0 0 0 0 0 0 0 0 0 0 0 0 0 0 0 0 0 0 0 0 0 0 0 0 2816 2816 2816 2816 2816 2816 2816 2816 2816 2816 2816 2816 2816 2816 2816 2816 2816 2816 2816 2816 2816 2816 2816 2816 2816 2816 2816 2816 2816 2816 2816 2816 2816 2816 2816 2816 1027 1028 1028 1028 1019 1020 981 982 982 982 264 264 264 264 264 264 264 264 264 264 264 264 264 264 264 264 264 264 263 263 263 263 263 263 263 263 263 263 320 2131 2131 2131 2131 2131 2131 2131 2131 2131 2131 2131 2131 2131 2131 2131 2131 2131 2131 2131 2131 2131 2131 2131 2131 2131 2131 2131 2131 2131 2131 2131 2131 2131 2131 2131 2131 2132 2132 2132 2132 2132 2132 2132 2132 2132 2132 2132 2132 2132 2132 2132 2132 2132 2132 2132 2132 2132 2132 2132 2132 2132 2132 2132 2132 2132 2132 2132 2132 1110 1127 1128 1128 1128 1128 1120 1120 1082 1082 1082 1082 267 267 267 267 267 267 267 267 267 267 267 267 267 267 266 266 266 266 266 266 266 266 266 266 266 266 266 266 266 381 2151 2151 2151 2151 2151 2151 2151 2151 2151 2151 2151 2151 2151 2151 2151 2151 2151 2151 2151 2151 2151 2151 2151 2151 2151 2151 2151 2151 2151 2151 2151 2151 2151 2151 2151 2151 2151 2151 2151 2151 2151 2151 2152 2152 2152 2152 2152 2152 2152 2152 2152 2152 2152 2152 2152 2152 2152 2152 2152 2152 2152 2152 2152 2152 2152 2152 2152 2152 2152 2152 2152 272 272 272 272 1210 1227 1228 1228 1228 1228 1228 1220 1220 1182 1182 1182 272 272 272 272 272 272 272 272 272 272 272 272 272 272 271 271 271 271 271 271 271 271 271 271 271 271 443 2171 2171 2171 2171 2171 2171 2171 2171 2171 2171 2171 2171 2171 2171 2171 2171 2171 2171 2171 2171 2171 2171 2171 2171 2171 2171 2171 2171 2171 2171 2171 2171 2171 2171 2171 2171 2171 2171 2171 2171 2171 2171 2171 2171 2171 2171 2171 2171 2171 2172 2172 2172 2172 2172 2172 2172 2172 2172 2172 2172 2172 2172 2172 2172 2172 2172 2172 2172 2172 2172 2172 2172 2172 2172 2172 2172 2172 276 276 276 276 275 275 1322 1322 1322 1322 1322 1322 1322 1322 1322 1322 1322 1322 1321 1321 1312 1312 1312 1311 1299 1299 1299 1299 1300 1300 1300 1300 1300 1300 1300 1300 1300 1300 1300 1300 1300 1300 1300 1300 1324 1323 1323 1323 1323 1323 1323 1377 1377 1377 1377 1377 1379 1379 1379 1379 1379 1379 1379 1379 1379 1479 1479 1479 1479 1479 1479 1479 1480 1480 1480 1480 1480 2477 2478 2479 2479 2480 2480 2480 2481 2481 2482 2482 2482 2483 2484 2484 2485 2486 2486 2486 2487 2488 2489 2490 2491 2492 2492 2492 2492 2492 2492 2492 2492 2492 2492 2492 2492 2492 2492 2492 2493 2493 2493 2493 2493 2493 2493 2494 2494 2494 2494 2494 2494 0 0 0 0 0 0 0 0 0 0 0 0 0
0 0 0 0 0 0 0 0 0 0 0 0 0 0 0 0 0 0 0 0 0 0 0 0 0 0 0 0 0 0 0 0 0 0 0 0 0 0 0 0 0 0 0 0 0 0 0 0 0 0 0 0 0 0 0 0 0 0 0 0 0 0 0 0 0 0 0 0 0 0 0 0 0 0 0 0 0 0 0 0 0 0 0 2816 2816 2816 2816 2816 2816 2816 2816 2816 2816 2816 2816 2816 2816 2816 2816 2816 2816 2816 2816 2816 2816 2816 2816 2816 2816 2816 2816 2816 2816 2816 2816 2816 2816 2816 1027 1027 1028 1028 1028 1020 981 981 982 982 982 264 264 264 264 264 264 264 264 264 264 264 264 264 264 264 264 263 263 263 263 263 263 263 263 263 263 263 321 320 2131 2131 2131 2131 2131 2131 2131 2131 2131 2131 2131 2131 2131 2131 2131 2131 2131 2131 2131 2131 2131 2131 2131 2131 2131 2131 2131 2131 2131 2131 2132 2132 2132 2132 2132 2132 2132 2132 2132 2132 2132 2132 2132 2132 2132 2132 2132 2132 2132 2132 2132 2132 2132 2132 2132 2132 2132 2132 2132 2132 2132 2132 2132 2132 2132 2132 2132 1109 1127 1127 1128 1128 1128 1119 1120 1081 1082 1082 1082 267 267 267 267 267 267 267 267 267 267 267 267 266 266 266 266 266 266 266 266 266 266 266 266 266 266 266 266 266 381 380 2151 2151 2151 2151 2151 2151 2151 2151 2151 2151 2151 2151 2151 2151 2151 2151 2151 2151 2151 2151 2151 2151 2151 2151 2151 2151 2151 2151 2151 2151 2151 2151 2151 2151 2151 2151 2152 2152 2152 2152 2152 2152 2152 2152 2152 2152 2152 2152 2152 2152 2152 2152 2152 2152 2152 2152 2152 2152 2152 2152 2152 2152 2152 2152 2152 2152 2152 2152 2152 2152 2152 272 272 272 1210 1227 1227 1228 1228 1228 1228 1220 1220 1181 1182 1182 272 272 272 272 272 272 272 272 272 272 272 271 271 271 271 271 271 271 271 271 271 271 271 271 271 271 443 2171 2171 2171 2171 2171 2171 2171 2171 2171 2171 2171 2171 2171 2171 2171 2171 2171 2171 2171 2171 2171 2171 2171 2171 2171 2171 2171 2171 2171 2171 2171 2171 2171 2171 2171 2171 2171 2171 2171 2171 2171 2171 2171 2171 2172 2172 2172 2172 2172 2172 2172 2172 2172 2172 2172 2172 2172 2172 2172 2172 2172 2172 2172 2172 2172 2172 2172 2172 2172 2172 2172 2172 2172 2172 2172 2172 2172 276 276 276 276 275 275 1322 1322 1322 1322 1322 1322 1322 1322 1322 1322 1322 1322 1321 1321 1312 1312 1312 1311 1299 1299 1299 1299 1299 1300 1300 1300 1300 1300 1300 1300 1300 1300 1300 1300 1300 1300 1300 1300 1324 1324 1323 1323 1323 1323 1323 1323 1323 1377 1377 1377 1379 1379 1379 1379 1379 1379 1379 1379 1379 1479 1479 1479 1479 1479 1479 1479 1479 1480 1480 1480 1480 2477 2478 2479 2479 2479 2480 2480 2481 2481 2482 2482 2482 2483 2484 2484 2485 2486 2486 2486 2487 2488 2488 2490 2490 2492 2492 2492 2492 2492 2492 2492 2492 2492 2492 2492 2492 2492 2492 2492 2493 2493 2493 2493 2493 2493 2493 2494 2494 2494 2494 2494 2494 0 0 0 0 0 0 0 0 0 0 0 0 0
0 0 0 0 0 0 0 0 0 0 0 0 0 0 0 0 0 0 0 0 0 0 0 0 0 0 0 0 0 0 0 0 0 0 0 0 0 0 0 0 0 0 0 0 0 0 0 0 0 0 0 0 0 0 0 0 0 0 0 0 0 0 0 0 0 0 0 0 0 0 0 0 0 0 0 0 0 0 0 563 564 564 564 564 564 564 564 564 564 564 564 564 564 564 564 564 564 564 564 564 564 564 564 564 564 564 564 564 564 564 564 564 564 564 564 564 564 564 1009 1027 1027 1028 1028 1020 1020 981 982 982 982 264 264 264 264 264 264 264 264 264 264 264 264 264 264 264 263 263 263 263 263 263 263 263 263 263 263 263 321 320 2131 2131 2131 2131 2131 2131 2131 2131 2131 2131 2131 2131 2131 2131 2131 2131 2131 2131 2131 2131 2131 2131 2131 2131 2131 2131 2132 2132 2132 2132 2132 2132 2132 2132 2132 2132 2132 2132 2132 2132 2132 2132 2132 2132 2132 2132 2132 2132 2132 2132 2132 2132 2132 2132 2132 2132 2132 2132 2132 2132 2132 2132 2132 2132 2132 2132 2132 2132 1110 1127 1127 1128 1128 1128 1120 1081 1081 1082 1082 267 267 267 267 267 267 267 267 267 267 266 266 266 266 266 266 266 266 266 266 266 266 266 266 266 266 266 266 266 266 380 2151 2151 2151 2151 2151 2151 2151 2151 2151 2151 2151 2151 2151 2151 2151 2151 2151 2151 2151 2151 2151 2151 2151 2151 2151 2151 2151 2151 2151 2151 2151 2151 2152 2152 2152 2152 2152 2152 2152 2152 2152 2152 2152 2152 2152 2152 2152 2152 2152 2152 2152 2152 2152 2152 2152 2152 2152 2152 2152 2152 2152 2152 2152 2152 2152 2152 2152 2152 2152 2152 2152 272 272 272 1209 1210 1227 1228 1228 1228 1228 1219 1220 1181 1182 1182 1182 272 272 272 272 272 272 272 272 271 271 271 271 271 271 271 271 271 271 271 271 271 271 271 271 271 444 2171 2171 2171 2171 2171 2171 2171 2171 2171 2171 2171 2171 2171 2171 2171 2171 2171 2171 2171 2171 2171 2171 2171 2171 2171 2171 2171 2171 2171 2171 2171 2171 2171 2171 2171 2171 2171 2171 2171 2172 2172 2172 2172 2172 2172 2172 2172 2172 2172 2172 2172 2172 2172 2172 2172 2172 2172 2172 2172 2172 2172 2172 2172 2172 2172 2172 2172 2172 2172 2172 2172 2172 2172 2172 2172 2172 2172 276 276 276 276 275 275 1322 1322 1322 1322 1322 1322 1322 1322 1322 1322 1322 1321 1321 1321 1312 1312 1312 1311 1299 1299 1299 1299 1299 1299 1300 1300 1300 1300 1300 1300 1300 1300 1300 1300 1300 1300 1300 1300 1324 1324 1323 1323 1323 1323 1323 1323 1323 1323 1323 1323 1379 1379 1379 1379 1379 1379 1379 1379 1379 1479 1479 1479 1479 1479 1479 1479 1479 1480 1480 1480 1480 2477 2478 2479 2479 2479 2480 2480 2481 2481 2482 2482 2482 2483 2484 2484 2485 2486 2486 2486 2487 2488 2488 2490 2490 2492 2492 2492 2492 2492 2492 2492 2492 2492 2492 2492 2492 2492 2492 2492 2493 2493 2493 2493 2493 2493 2493 2494 2494 2494 2494 2494 2494 0 0 0 0 0 0 0 0 0 0 0 0 0
0 0 0 0 0 0 0 0 0 0 0 0 0 0 0 0 0 0 0 0 0 0 0 0 0 0 0 0 0 0 0 0 0 0 0 0 0 0 0 0 0 0 0 0 0 0 0 0 0 0 0 0 0 0 0 0 0 0 0 0 0 0 0 0 0 0 0 0 0 0 0 0 0 0 0 0 0 0 0 563 563 563 564 564 564 564 564 564 564 564 564 564 564 564 564 564 564 564 564 564 564 564 564 564 564 564 564 564 564 564 564 564 564 564 564 564 564 564 564 1027 1027 1027 1028 1019 1020 981 981 982 982 982 264 264 264 264 264 264 264 264 264 264 264 264 264 263 263 263 263 263 263 263 263 263 263 263 263 263 263 321 2131 2131 2131 2131 2131 2131 2131 2131 2131 2131 2131 2131 2131 2131 2131 2131 2131 2131 2131 2131 2131 2132 2132 2132 2132 2132 2132 2132 2132 2132 2132 2132 2132 2132 2132 2132 2132 2132 2132 2132 2132 2132 2132 2132 2132 2132 2132 2132 2132 2132 2132 2132 2132 2132 2132 2132 2132 2132 2132 2132 2132 2132 2132 2132 2132 2132 2132 2132 1110 1127 1127 1128 1128 1128 1120 1120 1081 1082 1082 1082 267 267 267 267 267 267 266 266 266 266 266 266 266 266 266 266 266 266 266 266 266 266 266 266 266 266 266 266 266 381 2151 2151 2151 2151 2151 2151 2151 2151 2151 2151 2151 2151 2151 2151 2151 2151 2151 2151 2151 2151 2151 2151 2151 2151 2151 2151 2151 2152 2152 2152 2152 2152 2152 2152 2152 2152 2152 2152 2152 2152 2152 2152 2152 2152 2152 2152 2152 2152 2152 2152 2152 2152 2152 2152 2152 2152 2152 2152 2152 2152 2152 2152 2152 2152 2152 2152 2152 2152 2152 2152 2152 272 272 272 1209 1210 1227 1227 1228 1228 1228 1219 1220 1181 1182 1182 1182 272 272 272 272 272 271 271 271 271 271 271 271 271 271 271 271 271 271 271 271 271 271 271 271 271 271 443 2171 2171 2171 2171 2171 2171 2171 2171 2171 2171 2171 2171 2171 2171 2171 2171 2171 2171 2171 2171 2171 2171 2171 2171 2171 2171 2171 2171 2171 2171 2171 2171 2171 2171 2172 2172 2172 2172 2172 2172 2172 2172 2172 2172 2172 2172 2172 2172 2172 2172 2172 2172 2172 2172 2172 2172 2172 2172 2172 2172 2172 2172 2172 2172 2172 2172 2172 2172 2172 2172 2172 2172 2172 2172 2172 2172 276 276 276 276 275 275 1322 1322 1322 1322 1322 1322 1322 1322 1322 1322 1321 1321 1321 1321 1321 1312 1312 1311 1299 1299 1299 1299 1299 1299 1299 1300 1300 1300 1300 1300 1300 1300 1300 1300 1300 1300 1300 1300 1324 1324 1324 1323 1323 1323 1323 1323 1323 1323 1323 1323 1288 1288 1288 1288 1288 1288 1288 1288 1288 1479 1479 1479 1479 1479 1479 1479 1479 1479 1480 1480 1480 2477 2478 2479 2479 2479 2480 2480 2481 2481 2482 2482 2482 2483 2484 2484 2485 2486 2486 2486 2487 2488 2488 2490 2490 2492 2492 2492 2492 2492 2492 2492 2492 2492 2492 2492 2492 2492 2492 2492 2492 2493 2493 2493 2493 2493 2493 2494 2494 2494 2494 2494 2494 0 0 0 0 0 0 0 0 0 0 0 0 0
0 0 0 0 0 0 0 0 0 0 0 0 0 0 0 0 0 0 0 0 0 0 0 0 0 0 0 0 0 0 0 0 0 0 0 0 0 0 0 0 0 0 0 0 0 0 0 0 0 0 0 0 0 0 0 0 0 0 0 0 0 0 0 0 0 0 0 0 0 0 0 0 0 0 0 0 0 0 0 563 563 563 563 564 564 564 564 564 564 564 564 564 564 564 564 564 564 564 564 564 564 564 564 564 564 564 564 564 564 564 564 564 564 564 564 564 564 564 564 1010 1027 1027 1028 1028 1020 1020 981 981 982 982 264 264 264 264 264 264 264 264 264 264 264 263 263 263 263 263 263 263 263 263 263 263 263 263 263 263 263 321 320 2131 2131 2131 2131 2131 2131 2131 2131 2131 2131 2131 2131 2131 2131 2131 2131 2132 2132 2132 2132 2132 2132 2132 2132 2132 2132 2132 2132 2132 2132 2132 2132 2132 2132 2132 2132 2132 2132 2132 2132 2132 2132 2132 2132 2132 2132 2132 2132 2132 2132 2132 2132 2132 2132 2132 2132 2132 2132 2132 2132 2132 2132 2132 2132 2132 2132 2132 1109 1127 1127 1127 1128 1128 1119 1120 1081 1081 1082 1082 267 267 267 267 266 266 266 266 266 266 266 266 266 266 266 266 266 266 266 266 266 266 266 266 266 266 266 266 266 381 380 2151 2151 2151 2151 2151 2151 2151 2151 2151 2151 2151 2151 2151 2151 2151 2151 2151 2151 2151 2151 2151 2151 2152 2152 2152 2152 2152 2152 2152 2152 2152 2152 2152 2152 2152 2152 2152 2152 2152 2152 2152 2152 2152 2152 2152 2152 2152 2152 2152 2152 2152 2152 2152 2152 2152 2152 2152 2152 2152 2152 2152 2152 2152 2152 2152 2152 2152 2152 2152 2152 272 272 272 272 1210 1227 1227 1228 1228 1228 1228 1220 1220 1181 1182 1182 272 272 272 271 271 271 271 271 271 271 271 271 271 271 271 271 271 271 271 271 271 271 271 271 271 271 443 2171 2171 2171 2171 2171 2171 2171 2171 2171 2171 2171 2171 2171 2171 2171 2171 2171 2171 2171 2171 2171 2171 2171 2171 2171 2171 2171 2171 2171 2172 2172 2172 2172 2172 2172 2172 2172 2172 2172 2172 2172 2172 2172 2172 2172 2172 2172 2172 2172 2172 2172 2172 2172 2172 2172 2172 2172 2172 2172 2172 2172 2172 2172 2172 2172 2172 2172 2172 2172 2172 2172 2172 2172 2172 2172 2172 276 276 276 275 275 275 1322 1322 1322 1322 1322 1322 1322 1322 1322 1322 1321 1321 1321 1321 1321 1312 1312 1311 1299 1299 1299 1299 1299 1299 1299 1299 1300 1300 1300 1300 1300 1300 1300 1300 1300 1300 1300 1300 1324 1324 1324 1324 1323 1323 1323 1323 1323 1323 1323 1323 1288 1288 1288 1288 1288 1288 1288 1288 1288 1479 1479 1479 1479 1479 1479 1479 1479 1479 1480 1480 1480 1480 2478 2478 2479 2479 2480 2480 2481 2481 2482 2482 2482 2483 2483 2484 2484 2486 2486 2486 2487 2488 2488 2490 2490 2492 2492 2492 2492 2492 2492 2492 2492 2492 2492 2492 2492 2492 2492 2492 2492 2493 2493 2493 2493 2493 2493 2494 2494 2494 2494 2494 2494 0 0 0 0 0 0 0 0 0 0 0 0 0
0 0 0 0 0 0 0 0 0 0 0 0 0 0 0 0 0 0 0 0 0 0 0 0 0 0 0 0 0 0 0 0 0 0 0 0 0 0 0 0 0 0 0 0 0 0 0 0 0 0 0 0 0 0 0 0 0 0 0 0 0 0 0 0 0 0 0 0 0 0 0 0 0 0 0 0 0 0 0 563 563 563 563 563 563 564 564 564 564 564 564 564 564 564 564 564 564 564 564 564 564 564 564 564 564 564 564 564 564 564 564 564 564 564 564 564 564 564 564 564 1027 1027 1027 1028 1019 1020 981 981 982 982 264 264 264 264 264 264 264 264 264 264 263 263 263 263 263 263 263 263 263 263 263 263 263 263 263 263 263 321 321 2131 2131 2131 2131 2131 2131 2131 2131 2131 2131 2131 2131 2132 2132 2132 2132 2132 2132 2132 2132 2132 2132 2132 2132 2132 2132 2132 2132 2132 2132 2132 2132 2132 2132 2132 2132 2132 2132 2132 2132 2132 2132 2132 2132 2132 2132 2132 2132 2132 2132 2132 2132 2132 2132 2132 2132 2132 2132 2132 2132 2132 2132 2132 2132 2132 2132 2132 2132 1110 1127 1127 1127 1128 1128 1120 1081 1081 1082 1082 267 267 266 266 266 266 266 266 266 266 266 266 266 266 266 266 266 266 266 266 266 266 266 266 266 266 266 266 266 266 381 2151 2151 2151 2151 2151 2151 2151 2151 2151 2151 2151 2151 2151 2151 2151 2151 2151 2152 2152 2152 2152 2152 2152 2152 2152 2152 2152 2152 2152 2152 2152 2152 2152 2152 2152 2152 2152 2152 2152 2152 2152 2152 2152 2152 2152 2152 2152 2152 2152 2152 2152 2152 2152 2152 2152 2152 2152 2152 2152 2152 2152 2152 2152 2152 2152 2152 2152 2152 2152 2152 2152 272 272 272 1209 1227 1227 1227 1228 1228 1228 1219 1220 1181 1182 1182 272 271 271 271 271 271 271 271 271 271 271 271 271 271 271 271 271 271 271 271 271 271 271 271 271 271 444 2171 2171 2171 2171 2171 2171 2171 2171 2171 2171 2171 2171 2171 2171 2171 2171 2171 2171 2171 2171 2171 2171 2171 2171 2172 2172 2172 2172 2172 2172 2172 2172 2172 2172 2172 2172 2172 2172 2172 2172 2172 2172 2172 2172 2172 2172 2172 2172 2172 2172 2172 2172 2172 2172 2172 2172 2172 2172 2172 2172 2172 2172 2172 2172 2172 2172 2172 2172 2172 2172 2172 2172 2172 2172 2172 2172 2172 276 276 275 275 275 275 1322 1322 1322 1322 1322 1322 1322 1322 1321 1321 1321 1321 1321 1321 1312 1312 1311 1311 1299 1299 1299 1299 1299 1299 1299 1299 1299 1300 1300 1300 1300 1300 1300 1300 1300 1300 1300 1300 1324 1324 1324 1323 1323 1323 1323 1323 1323 1323 1323 1288 1288 1288 1288 1288 1288 1288 1288 1288 1479 1479 1479 1479 1479 1479 1479 1479 1479 1480 1480 1480 1480 2477 2478 2479 2479 2480 2480 2481 2481 2482 2482 2482 2483 2483 2484 2484 2486 2486 2486 2487 2488 2488 2490 2490 2492 2492 2492 2492 2492 2492 2492 2492 2492 2492 2492 2492 2492 2492 2492 2492 2493 2493 2493 2493 2493 2493 2494 2494 2494 2494 2494 2494 0 0 0 0 0 0 0 0 0 0 0 0 0
0 0 0 0 0 0 0 0 0 0 0 0 0 0 0 0 0 0 0 0 0 0 0 0 0 0 0 0 0 0 0 0 0 0 0 0 0 0 0 0 0 0 0 0 0 0 0 0 0 0 0 0 0 0 0 0 0 0 0 0 0 0 0 0 0 0 0 0 0 0 0 0 0 0 0 0 0 0 0 563 563 563 563 563 563 563 563 564 564 564 564 564 564 564 564 564 564 564 564 564 564 564 564 564 564 564 564 564 564 564 564 564 564 564 564 564 564 564 564 564 1027 1027 1027 1027 1028 1020 981 981 981 982 982 264 264 264 264 264 264 264 264 263 263 263 263 263 263 263 263 263 263 263 263 263 263 263 263 263 263 263 321 320 2131 2131 2131 2131 2131 2131 2132 2132 2132 2132 2132 2132 2132 2132 2132 2132 2132 2132 2132 2132 2132 2132 2132 2132 2132 2132 2132 2132 2132 2132 2132 2132 2132 2132 2132 2132 2132 2132 2132 2132 2132 2132 2132 2132 2132 2132 2132 2132 2132 2132 2132 2132 2132 2132 2132 2132 2132 2132 2132 2132 2132 2132 2132 2132 2132 2132 2132 1109 1127 1127 1127 1128 1128 1119 1120 1081 1081 1082 1082 266 266 266 266 266 266 266 266 266 266 266 266 266 266 266 266 266 266 266 266 266 266 266 266 266 266 266 266 266 381 2151 2151 2151 2151 2151 2151 2151 2151 2151 2151 2151 2151 2151 2152 2152 2152 2152 2152 2152 2152 2152 2152 2152 2152 2152 2152 2152 2152 2152 2152 2152 2152 2152 2152 2152 2152 2152 2152 2152 2152 2152 2152 2152 2152 2152 2152 2152 2152 2152 2152 2152 2152 2152 2152 2152 2152 2152 2152 2152 2152 2152 2152 2152 2152 2152 2152 2152 2152 2152 2152 2152 272 272 272 1209 1210 1227 1227 1227 1228 1228 1219 1220 1181 1181 1182 1182 271 271 271 271 271 271 271 271 271 271 271 271 271 271 271 271 271 271 271 271 271 271 271 271 271 444 2171 2171 2171 2171 2171 2171 2171 2171 2171 2171 2171 2171 2171 2171 2171 2171 2171 2171 2171 2172 2172 2172 2172 2172 2172 2172 2172 2172 2172 2172 2172 2172 2172 2172 2172 2172 2172 2172 2172 2172 2172 2172 2172 2172 2172 2172 2172 2172 2172 2172 2172 2172 2172 2172 2172 2172 2172 2172 2172 2172 2172 2172 2172 2172 2172 2172 2172 2172 2172 2172 2172 2172 2172 2172 2172 2172 2172 276 276 275 275 275 275 1322 1322 1322 1322 1322 1322 1322 1321 1321 1321 1321 1321 1321 1321 1312 1312 1311 1311 1299 1299 1299 1299 1299 1299 1299 1299 1299 1299 1300 1300 1300 1300 1300 1300 1300 1300 1300 1300 1324 1324 1324 1324 1323 1323 1323 1323 1323 1323 1323 1288 1288 1288 1288 1288 1288 1288 1288 1288 1479 1479 1479 1479 1479 1479 1479 1479 1479 1479 1480 1480 1480 2477 2478 2479 2479 2480 2480 2481 2481 2482 2482 2482 2483 2483 2484 2484 2486 2486 2486 2487 2488 2488 2490 2490 2492 2492 2492 2492 2492 2492 2492 2492 2492 2492 2492 2492 2492 2492 2492 2492 2493 2493 2493 2493 2493 2493 2494 2494 2494 2494 2494 2494 0 0 0 0 0 0 0 0 0 0 0 0 0
0 0 0 0 0 0 0 0 0 0 0 0 0 0 0 0 0 0 0 0 0 0 0 0 0 0 0 0 0 0 0 0 0 0 0 0 0 0 0 0 0 0 0 0 0 0 0 0 0 0 0 0 0 0 0 0 0 0 0 0 0 0 0 0 0 0 0 0 0 0 0 0 0 0 0 0 0 0 563 563 563 563 563 563 563 563 563 563 564 564 564 564 564 564 564 564 564 564 564 564 564 564 564 564 564 564 564 564 564 564 564 564 564 564 564 564 564 564 564 564 1009 1027 1027 1027 1028 1019 1020 981 981 981 982 264 264 264 264 264 264 264 263 263 263 263 263 263 263 263 263 263 263 263 263 263 263 263 263 263 263 263 321 321 2131 2131 2132 2132 2132 2132 2132 2132 2132 2132 2132 2132 2132 2132 2132 2132 2132 2132 2132 2132 2132 2132 2132 2132 2132 2132 2132 2132 2132 2132 2132 2132 2132 2132 2132 2132 2132 2132 2132 2132 2132 2132 2132 2132 2132 2132 2132 2132 2132 2132 2132 2132 2132 2132 2132 2132 2132 2132 2132 2132 2132 2132 2132 2132 2132 2132 2132 1109 1127 1127 1127 1127 1128 1119 1120 1081 1081 1082 1082 266 266 266 266 266 266 266 266 266 266 266 266 266 266 266 266 266 266 266 266 266 266 266 266 266 266 266 266 266 381 380 2151 2151 2151 2151 2151 2151 2151 2152 2152 2152 2152 2152 2152 2152 2152 2152 2152 2152 2152 2152 2152 2152 2152 2152 2152 2152 2152 2152 2152 2152 2152 2152 2152 2152 2152 2152 2152 2152 2152 2152 2152 2152 2152 2152 2152 2152 2152 2152 2152 2152 2152 2152 2152 2152 2152 2152 2152 2152 2152 2152 2152 2152 2152 2152 2152 2152 2152 2152 2152 2152 272 272 272 1209 1210 1227 1227 1227 1228 1228 1219 1220 1181 1181 1182 1182 271 271 271 271 271 271 271 271 271 271 271 271 271 271 271 271 271 271 271 271 271 271 271 271 271 444 443 2171 2171 2171 2171 2171 2171 2171 2171 2171 2171 2171 2171 2171 2171 2172 2172 2172 2172 2172 2172 2172 2172 2172 2172 2172 2172 2172 2172 2172 2172 2172 2172 2172 2172 2172 2172 2172 2172 2172 2172 2172 2172 2172 2172 2172 2172 2172 2172 2172 2172 2172 2172 2172 2172 2172 2172 2172 2172 2172 2172 2172 2172 2172 2172 2172 2172 2172 2172 2172 2172 2172 2172 2172 2172 2172 2172 276 276 275 275 275 275 1322 1322 1322 1322 1322 1322 1322 1321 1321 1321 1321 1321 1321 1321 1312 1312 1311 1311 1299 1299 1299 1299 1299 1299 1299 1299 1299 1299 1299 1300 1300 1300 1300 1300 1300 1300 1300 1300 1324 1324 1324 1324 1323 1323 1323 1323 1323 1323 1323 1323 1288 1288 1288 1288 1288 1288 1288 1288 1479 1479 1479 1479 1479 1479 1479 1479 1479 1479 1480 1480 1480 2477 2478 2479 2479 2480 2480 2481 2481 2482 2482 2482 2483 2483 2484 2484 2486 2486 2486 2487 2488 2488 2490 2490 2492 2492 2492 2492 2492 2492 2492 2492 2492 2492 2492 2492 2492 2492 2492 2492 2493 2493 2493 2493 2493 2493 2493 2494 2494 2494 2494 2494 0 0 0 0 0 0 0 0 0 0 0 0 0
0 0 0 0 0 0 0 0 0 0 0 0 0 0 0 0 0 0 0 0 0 0 0 0 0 0 0 0 0 0 0 0 0 0 0 0 0 0 0 0 0 0 0 0 0 0 0 0 0 0 0 0 0 568 568 568 568 568 568 568 568 568 568 568 568 568 568 568 568 568 568 568 568 568 568 568 568 568 568 568 568 568 568 568 568 568 568 568 568 563 564 564 564 564 564 564 564 564 564 564 564 564 564 564 564 564 564 564 564 564 564 564 564 564 564 564 564 564 564 564 511 1027 1027 1027 1027 1019 1020 981 981 981 981 982 264 264 264 264 264 263 263 263 263 263 263 263 263 263 263 263 263 263 263 263 263 263 263 263 263 263 263 321 323 323 323 323 323 323 323 323 323 323 323 323 323 323 323 323 323 323 323 323 323 323 323 323 323 323 323 323 323 323 323 323 323 323 323 323 323 323 323 323 323 323 323 323 323 323 323 323 323 323 323 2132 2132 2132 2132 2132 2132 2132 2132 2132 2132 2132 2132 2132 2132 2132 2132 2132 1110 1127 1127 1127 1128 1119 1120 1081 1081 1081 1082 266 266 266 266 266 266 266 266 266 266 266 266 266 266 266 266 266 266 266 266 266 266 266 266 266 266 266 266 266 381 381 2151 2151 2151 2152 2152 2152 2152 2152 2152 2152 2152 2152 2152 2152 2152 2152 2152 2152 2152 2152 2152 2152 2152 2152 2152 2152 2152 2152 2152 2152 2152 2152 2152 2152 2152 2152 2152 2152 2152 2152 2152 2152 2152 2152 2152 2152 2152 2152 2152 2152 2152 2152 2152 2152 2152 2152 2152 2152 2152 2152 2152 2152 2152 2152 2152 2152 2152 2152 2152 2152 2152 272 272 272 1210 1227 1227 1227 1227 1228 1228 1219 1220 1181 1181 1182 271 271 271 271 271 271 271 271 271 271 271 271 271 271 271 271 271 271 271 271 271 271 271 271 271 271 444 2171 2171 2171 2171 2171 2171 2171 2171 2171 2172 2172 2172 2172 2172 2172 2172 2172 2172 2172 2172 2172 2172 2172 2172 2172 2172 2172 2172 2172 2172 2172 2172 2172 2172 2172 2172 2172 2172 2172 2172 2172 2172 2172 2172 2172 2172 2172 2172 2172 2172 2172 2172 2172 2172 2172 2172 2172 2172 2172 2172 2172 2172 2172 2172 2172 2172 2172 2172 2172 2172 2172 2172 2172 2172 2172 2172 276 276 275 275 275 275 1322 1322 1322 1322 1322 1322 1321 1321 1321 1321 1321 1321 1321 1321 1312 1312 1311 1311 1299 1299 1299 1299 1299 1299 1299 1299 1299 1299 1299 1299 1300 1300 1300 1300 1300 1300 1300 1300 1324 1324 1324 1324 1324 1323 1323 1323 1323 1323 1323 1323 1288 1288 1288 1288 1288 1288 1288 1288 1479 1479 1479 1479 1479 1479 1479 1479 1479 1479 1480 1480 1480 2477 2478 2479 2479 2480 2480 2480 2481 2482 2482 2482 2482 2483 2484 2484 2486 2486 2486 2486 2487 2488 2490 2490 2491 2492 2492 2492 2492 2492 2492 2492 2492 2492 2492 2492 2492 2492 2492 2492 2493 2493 2493 2493 2493 2493 2493 2494 2494 2494 2494 2494 0 0 0 0 0 0 0 0 0 0 0 0 0
0 0 0 0 0 0 0 0 0 0 0 0 0 0 0 0 0 0 0 0 0 0 0 0 0 0 0 0 0 0 0 0 0 0 0 0 0 0 0 0 0 0 0 0 0 0 0 0 0 0 0 0 568 568 568 568 568 568 568 568 568 568 568 568 568 568 568 568 568 568 568 568 568 568 568 568 568 568 568 568 568 568 568 568 568 568 568 568 568 568 568 567 567 567 567 518 518 518 518 518 518 518 518 518 518 518 518 518 518 518 518 518 518 518 518 518 518 518 518 518 518 1010 1027 1027 1027 1027 1019 981 981 981 981 982 264 264 264 264 263 263 263 263 263 263 263 263 263 263 263 263 263 263 263 263 263 263 263 263 263 263 263 323 322 322 322 322 322 322 322 322 322 322 322 322 322 322 322 322 322 322 322 322 322 322 322 322 322 322 322 322 322 322 322 322 322 322 322 322 322 322 322 322 322 322 322 322 322 322 322 322 322 322 322 322 322 322 322 322 322 322 322 322 322 322 322 322 322 322 322 322 1109 1127 1127 1127 1127 1128 1119 1120 1081 1081 1081 1082 266 266 266 266 266 266 266 266 266 266 266 266 266 266 266 266 266 266 266 266 266 266 266 266 266 266 266 266 266 381 383 383 383 383 383 383 383 383 383 383 383 383 383 383 383 383 383 383 383 383 383 383 383 383 383 383 383 383 383 383 383 383 383 2152 2152 2152 2152 2152 2152 2152 2152 2152 2152 2152 2152 2152 2152 2152 2152 2152 2152 2152 2152 2152 2152 2152 2152 2152 2152 2152 2152 2152 2152 2152 2152 2152 2152 2152 2152 2152 2152 272 272 272 1209 1227 1227 1227 1227 1228 1228 1219 1220 1181 1181 1182 271 271 271 271 271 271 271 271 271 271 271 271 271 271 271 271 271 271 271 271 271 271 271 271 271 271 444 2171 2171 2171 2171 2172 2172 2172 2172 2172 2172 2172 2172 2172 2172 2172 2172 2172 2172 2172 2172 2172 2172 2172 2172 2172 2172 2172 2172 2172 2172 2172 2172 2172 2172 2172 2172 2172 2172 2172 2172 2172 2172 2172 2172 2172 2172 2172 2172 2172 2172 2172 2172 2172 2172 2172 2172 2172 2172 2172 2172 2172 2172 2172 2172 2172 2172 2172 2172 2172 2172 2172 2172 2172 2172 2172 2172 276 276 275 275 275 275 1322 1322 1322 1322 1322 1321 1321 1321 1321 1321 1321 1321 1321 1321 1321 1312 1311 1311 1299 1299 1299 1299 1299 1299 1299 1299 1299 1299 1299 1299 1299 1300 1300 1300 1300 1300 1300 1300 1324 1324 1324 1324 1324 1323 1323 1323 1323 1323 1323 1323 1288 1288 1288 1288 1288 1288 1288 1288 1479 1479 1479 1479 1479 1479 1479 1479 1479 1479 1479 1480 1480 2477 2478 2479 2479 2480 2480 2480 2481 2482 2482 2482 2482 2483 2484 2484 2485 2486 2486 2486 2487 2488 2490 2490 2491 2492 2492 2492 2492 2492 2492 2492 2492 2492 2492 2492 2492 2492 2492 2492 2492 2493 2493 2493 2493 2493 2493 2494 2494 2494 2494 2494 0 0 0 0 0 0 0 0 0 0 0 0 0
0 0 0 0 0 0 0 0 0 0 0 0 0 0 0 0 0 0 0 0 0 0 0 0 0 0 0 0 0 0 0 0 0 0 0 0 0 0 0 0 0 0 0 0 0 0 0 0 0 0 0 0 568 568 568 568 568 568 568 568 568 568 568 568 568 568 568 568 568 568 568 568 568 568 568 568 568 568 568 568 568 568 568 568 568 568 567 567 567 567 567 567 567 567 567 518 518 518 518 518 518 518 518 518 518 518 518 518 518 518 518 518 518 518 518 518 518 518 518 518 518 518 1027 1027 1027 1027 1019 1020 981 981 981 981 264 264 264 263 263 263 263 263 263 263 263 263 263 263 263 263 262 262 262 262 262 262 262 262 262 262 262 262 262 262 262 262 262 262 262 262 262 262 262 262 262 262 262 262 262 262 262 262 262 262 262 262 262 262 262 262 262 262 262 262 262 262 262 262 262 262 262 262 262 262 262 262 262 262 262 262 262 262 262 262 262 262 262 262 262 261 261 261 261 261 261 261 261 261 261 261 1109 1127 1127 1127 1127 1127 1119 1120 1081 1081 1081 1082 265 265 265 265 265 265 266 266 266 266 266 266 266 266 266 266 266 266 266 266 266 266 266 266 266 266 266 266 266 383 383 383 383 383 383 383 383 383 383 383 383 383 383 383 383 383 383 383 383 383 383 383 382 382 382 382 382 382 382 382 382 382 382 382 382 382 382 382 382 382 382 382 382 382 382 382 382 382 382 382 382 382 382 382 382 382 382 382 382 382 382 382 382 382 382 382 382 382 382 382 382 272 272 272 1209 1210 1227 1227 1227 1227 1228 1219 1220 1181 1181 1181 1182 271 271 271 271 271 271 271 271 271 271 271 271 271 271 271 271 271 271 271 271 271 271 271 271 271 444 446 446 446 446 446 446 446 446 446 446 446 446 2172 2172 2172 2172 2172 2172 2172 2172 2172 2172 2172 2172 2172 2172 2172 2172 2172 2172 2172 2172 2172 2172 2172 2172 2172 2172 2172 2172 2172 2172 2172 2172 2172 2172 2172 2172 2172 2172 2172 2172 2172 2172 2172 2172 2172 2172 2172 2172 2172 2172 2172 2172 2172 2172 2172 2172 2172 2172 2172 2172 2172 2172 2172 2172 2172 275 275 275 275 275 1322 1322 1322 1322 1322 1321 1321 1321 1321 1321 1321 1321 1321 1321 1321 1312 1311 1311 1299 1299 1299 1299 1299 1299 1299 1299 1299 1299 1299 1299 1299 1299 1300 1300 1300 1300 1300 1300 1324 1324 1324 1324 1324 1324 1323 1323 1323 1323 1323 1323 1288 1288 1288 1288 1288 1288 1288 1288 1288 1479 1479 1479 1479 1479 1479 1479 1479 1479 1479 1480 1480 2477 2478 2479 2479 2480 2480 2480 2481 2482 2482 2482 2482 2483 2484 2484 2485 2486 2486 2486 2487 2488 2489 2490 2491 2492 2492 2492 2492 2492 2492 2492 2492 2492 2492 2492 2492 2492 2492 2492 2492 2493 2493 2493 2493 2493 2493 2494 2494 2494 2494 2494 0 0 0 0 0 0 0 0 0 0 0 0 0
0 0 0 0 0 0 0 0 0 0 0 0 0 0 0 0 0 0 0 0 0 0 0 0 0 0 0 0 0 0 0 0 0 0 0 0 0 0 0 0 0 0 0 0 0 0 0 0 0 0 0 0 568 568 568 568 568 568 568 568 568 568 568 568 568 568 568 568 568 568 568 568 568 568 568 568 568 568 568 568 568 567 567 567 567 567 567 567 567 567 567 567 567 567 567 518 518 518 518 518 518 518 518 518 518 518 518 518 518 518 518 518 518 518 518 518 518 518 518 518 518 518 1027 1027 1027 1027 1019 1019 981 981 981 981 981 263 263 263 263 263 262 262 262 262 262 262 262 262 262 262 262 262 262 262 262 262 262 262 262 262 261 261 261 261 261 261 261 261 261 261 261 261 261 261 261 261 261 261 261 261 261 261 261 261 261 261 261 261 261 261 261 261 261 261 261 261 261 261 261 261 261 261 261 261 261 261 261 261 261 261 261 261 261 261 261 261 261 261 261 261 261 261 261 261 261 261 261 261 261 261 261 1110 1127 1127 1127 1127 1119 1119 1081 1081 1081 1081 265 265 265 265 265 265 265 265 265 265 265 265 265 265 265 265 265 265 265 265 265 265 265 265 268 268 268 268 268 268 268 268 268 268 268 268 268 268 268 268 268 268 268 268 268 268 268 268 268 268 268 268 268 268 268 268 268 268 268 268 268 268 268 268 268 268 268 268 268 268 268 268 268 268 268 268 268 268 268 268 268 268 268 268 268 268 268 268 268 268 268 268 268 268 382 382 382 382 382 382 382 272 271 271 1209 1210 1227 1227 1227 1227 1228 1219 1219 1181 1181 1181 1182 271 271 271 271 271 271 271 271 271 271 271 271 271 271 271 271 271 271 271 271 271 271 271 271 271 444 446 446 446 446 446 446 446 446 446 446 446 446 446 446 446 446 446 446 446 446 446 446 446 446 446 446 446 446 446 446 446 446 446 446 446 446 446 446 446 446 446 446 446 446 446 446 446 446 446 446 446 445 445 445 445 445 445 445 445 445 445 445 445 445 445 445 445 445 445 445 445 445 445 445 445 445 445 275 275 275 275 275 275 1322 1322 1322 1321 1321 1321 1321 1321 1321 1321 1321 1321 1321 1321 1312 1311 1311 1311 1299 1299 1299 1299 1299 1299 1299 1299 1299 1299 1299 1299 1299 1299 1299 1300 1300 1300 1300 1324 1324 1324 1324 1324 1324 1323 1323 1323 1323 1323 1323 1288 1288 1288 1288 1288 1288 1369 1370 1370 1479 1479 1479 1479 1479 1479 1479 1479 1479 1479 1479 1480 2477 2478 2479 2479 2480 2480 2480 2481 2481 2482 2482 2482 2483 2484 2484 2485 2486 2486 2486 2487 2488 2489 2490 2490 2492 2492 2492 2492 2492 2492 2492 2492 2492 2492 2492 2492 2492 2492 2492 2492 2493 2493 2493 2493 2493 2493 2494 2494 2494 2494 2494 0 0 0 0 0 0 0 0 0 0 0 0 0
0 0 0 0 0 0 0 0 0 0 0 0 0 0 0 0 0 0 0 0 0 0 0 0 0 0 0 0 0 0 0 0 0 0 0 0 0 0 0 0 0 0 0 0 0 0 0 0 0 0 0 0 568 568 568 568 568 568 568 568 568 568 568 568 568 568 568 568 568 568 568 568 568 568 568 567 567 567 567 567 567 567 567 567 567 567 567 567 567 567 567 567 567 567 567 518 518 518 518 518 518 518 518 518 518 518 518 518 518 518 518 518 518 518 518 518 518 518 518 518 518 518 1009 1027 1027 1027 1027 1019 1020 981 981 981 981 258 258 258 258 258 258 258 258 258 259 259 259 259 259 259 259 259 259 259 259 260 260 260 260 260 260 260 260 260 260 260 260 260 260 260 260 260 260 260 260 260 260 260 260 260 260 260 260 260 260 260 260 260 260 260 260 260 260 260 261 261 261 261 261 261 261 261 261 261 261 261 261 261 261 261 261 261 261 261 261 261 261 261 261 261 261 261 261 261 261 261 261 261 261 261 261 1109 1127 1127 1127 1127 1127 1119 1120 1081 1081 1081 1082 261 261 261 261 261 261 265 265 265 265 265 265 265 265 265 268 268 268 268 268 268 268 268 268 268 268 268 268 268 268 268 268 268 268 268 268 268 268 268 268 268 268 268 268 268 268 269 269 269 269 269 269 269 269 269 269 269 269 269 269 269 269 269 269 269 269 269 269 269 269 269 269 269 269 269 269 269 269 269 269 269 269 269 269 269 269 269 269 269 269 269 269 269 269 269 269 269 269 269 269 269 269 269 269 1209 1227 1227 1227 1227 1227 1228 1219 1220 1181 1181 1181 270 270 270 270 270 270 270 270 270 270 270 270 270 270 270 270 270 270 270 270 270 270 273 273 273 273 273 273 273 273 273 273 273 273 273 273 273 273 273 273 273 273 273 273 273 273 273 273 273 273 273 273 273 273 273 273 273 273 273 273 273 273 273 273 273 445 445 445 445 445 445 445 445 445 445 445 445 445 445 445 445 445 445 445 445 445 445 445 445 445 445 445 445 445 445 445 445 445 445 445 445 445 445 275 275 275 275 275 275 1322 1322 1322 1321 1321 1321 1321 1321 1321 1321 1321 1321 1321 1321 1312 1311 1311 1311 1299 1299 1299 1299 1299 1299 1299 1299 1299 1299 1299 1299 1299 1299 1299 1299 1300 1300 1300 1300 1324 1324 1324 1324 1324 1324 1323 1323 1323 1323 1323 1288 1288 1288 1288 1288 1288 1369 1370 1370 1479 1479 1479 1479 1479 1479 1479 1479 1479 1479 1479 1480 2477 2478 2478 2479 2479 2480 2480 2481 2481 2482 2482 2482 2483 2484 2484 2485 2486 2486 2486 2487 2488 2488 2490 2490 2492 2492 2492 2492 2492 2492 2492 2492 2492 2492 2492 2492 2492 2492 2492 2492 2493 2493 2493 2493 2493 2493 2494 2494 2494 2494 2494 0 0 0 0 0 0 0 0 0 0 0 0 0
0 0 0 0 0 0 0 0 0 0 0 0 0 0 0 0 0 0 0 0 0 0 0 0 0 0 0 0 0 0 0 0 0 0 0 0 0 0 0 0 0 0 0 0 0 0 0 0 0 0 0 0 568 568 568 568 568 568 568 568 568 568 568 568 568 568 568 568 568 568 567 567 567 567 567 567 567 567 567 567 567 567 567 567 567 567 567 567 567 567 567 567 567 567 567 518 518 518 518 518 518 518 518 518 518 518 518 518 518 518 518 518 518 518 518 518 518 518 518 518 518 518 518 1027 1027 1027 1027 1019 1019 981 981 981 980 980 258 258 258 258 258 258 258 258 258 258 258 258 258 258 258 258 258 258 258 258 258 258 258 259 259 259 259 259 259 259 259 259 259 259 259 259 259 259 259 259 259 259 259 259 259 259 259 259 259 259 259 259 259 259 259 260 260 260 260 260 260 260 260 260 260 260 260 260 260 260 260 260 260 260 260 260 260 260 260 260 260 260 260 260 260 260 260 260 260 260 260 260 260 260 260 260 1127 1127 1127 1127 1127 1119 1119 1081 1081 1081 1081 260 260 260 260 260 257 257 257 257 257 257 257 257 257 257 246 246 246 246 246 246 246 246 246 244 244 244 244 244 244 244 244 244 244 244 244 244 244 244 244 244 244 244 244 244 244 269 269 269 269 269 269 269 269 269 269 269 269 269 269 269 269 269 269 269 269 269 269 269 269 269 269 269 269 269 269 269 269 269 269 269 269 269 269 269 269 269 269 269 269 269 269 269 269 269 269 269 269 269 269 269 269 269 269 1209 1227 1227 1227 1227 1227 1227 1219 1220 1181 1181 1181 270 270 270 270 270 270 270 270 270 270 270 270 270 270 273 273 273 273 273 273 273 273 273 273 273 273 273 273 273 273 273 273 273 273 273 273 273 273 273 273 273 273 273 273 273 273 273 273 273 273 273 273 273 273 273 273 273 273 273 273 273 273 273 273 273 273 273 274 274 274 274 274 274 274 274 274 274 274 274 274 274 274 274 274 274 274 274 274 274 274 274 274 274 274 274 274 274 274 274 274 274 274 274 274 275 275 275 275 275 1322 1322 1321 1321 1321 1321 1321 1321 1321 1321 1321 1321 1321 1321 1312 1311 1311 1311 1299 1299 1299 1299 1299 1299 1299 1299 1299 1299 1299 1299 1299 1299 1299 1299 1299 1300 1300 1300 1324 1324 1324 1324 1324 1324 1323 1323 1323 1323 1323 1323 1288 1288 1288 1288 1288 1369 1369 1370 1479 1479 1479 1479 1479 1479 1479 1479 1479 1479 1479 1480 2477 2478 2478 2479 2479 2480 2480 2481 2481 2482 2482 2482 2483 2484 2484 2485 2486 2486 2486 2487 2488 2488 2490 2490 2644 2492 2492 2492 2492 2492 2492 2492 2492 2492 2492 2492 2492 2492 2492 2492 2493 2493 2493 2493 2493 2493 2494 2494 2494 2494 2494 0 0 0 0 0 0 0 0 0 0 0 0 0
0 0 0 0 0 0 0 0 0 0 0 0 0 0 0 0 0 0 0 0 0 0 0 0 0 0 0 0 0 0 0 0 0 0 0 0 0 0 0 0 0 0 0 0 0 0 0 0 0 0 0 0 568 568 568 568 568 568 568 568 568 568 568 568 568 567 567 567 567 567 567 567 567 567 567 567 567 567 567 567 567 567 567 567 567 567 567 567 567 567 567 567 567 567 567 518 518 518 518 518 518 518 518 518 518 518 518 518 518 518 518 518 518 518 518 518 518 518 518 517 517 517 517 517 1026 1026 1026 1026 1019 981 981 980 980 980 980 258 258 258 258 258 258 258 258 258 258 258 258 258 258 258 258 258 258 258 258 258 258 258 258 258 254 254 306 306 306 2126 2126 2126 2126 2126 2126 2126 2126 2126 2126 2126 2126 2126 2126 2126 2126 2126 2126 2126 2126 2126 2126 2126 2126 2126 2126 2125 2125 2125 2125 2125 2125 2125 2125 2125 2125 2125 2125 2125 2125 2125 2125 2125 2125 2125 2125 2125 2125 2125 2125 2125 259 259 259 259 259 259 259 259 260 260 260 260 260 260 1109 1127 1127 1127 1127 1119 1119 1081 1081 1081 1080 1080 257 257 257 257 257 257 257 257 257 257 257 257 257 257 257 257 257 257 257 257 257 257 257 246 246 246 246 246 246 246 246 246 246 246 246 246 246 246 246 246 246 246 246 246 246 246 246 246 246 246 246 246 246 244 244 244 244 244 244 244 244 244 244 244 244 244 244 244 244 244 244 244 244 244 244 244 244 244 244 244 244 244 244 244 244 244 244 244 244 244 244 244 244 244 244 244 244 244 244 244 244 244 244 1209 1210 1227 1227 1227 1227 1227 1219 1219 1181 1181 1181 1182 244 244 244 244 244 243 243 236 235 235 235 274 274 274 274 274 274 274 274 274 274 274 274 274 274 274 274 274 274 274 274 274 274 274 274 274 274 274 274 274 274 274 274 274 274 274 274 274 274 274 274 274 274 274 274 274 274 274 274 274 274 274 274 274 274 274 274 274 274 274 274 274 274 274 274 274 274 274 274 274 274 274 274 274 274 274 274 274 274 274 274 274 274 274 274 274 274 274 274 274 274 274 274 274 274 274 275 275 1322 1321 1321 1321 1321 1321 1321 1321 1321 1321 1321 1321 1321 1321 1321 1311 1311 1311 1299 1299 1299 1299 1299 1299 1299 1299 1299 1299 1299 1299 1299 1299 1299 1299 1299 1299 1300 1300 1324 1324 1324 1324 1324 1324 1324 1323 1323 1323 1323 1323 1288 1288 1288 1288 1288 1368 1369 1370 1479 1479 1479 1479 1479 1479 1479 1479 1479 1479 1479 1479 2477 2478 2478 2479 2479 2480 2480 2481 2481 2482 2482 2482 2483 2484 2484 2484 2486 2486 2486 2487 2488 2488 2490 2490 2492 2644 2492 2492 2492 2492 2492 2492 2492 2492 2492 2492 2492 2492 2492 2492 2493 2493 2493 2493 2493 2493 2494 2494 2494 2494 2494 0 0 0 0 0 0 0 0 0 0 0 0 0
0 0 0 0 0 0 0 0 0 0 0 0 0 0 0 0 0 0 0 0 0 0 0 0 0 0 0 0 0 0 0 0 0 0 0 0 0 0 0 0 0 0 0 0 0 0 0 0 0 0 0 568 568 568 568 568 568 568 568 568 567 567 567 567 567 567 567 567 567 567 567 567 567 567 567 567 567 567 567 567 567 567 567 567 567 567 567 567 567 567 567 567 567 567 567 518 518 518 518 518 518 518 518 518 518 518 518 518 518 518 518 518 517 517 517 517 517 517 517 517 517 517 517 517 517 1026 1026 1026 1019 1019 981 980 980 980 980 980 258 258 258 258 258 258 258 258 258 258 258 258 258 258 258 258 258 258 258 258 258 254 254 254 254 254 254 307 306 306 2126 2126 2126 2126 2126 2126 2126 2126 2126 2126 2126 2126 2126 2126 2126 2126 2126 2126 2126 2126 2126 2126 2126 2126 2126 2126 2126 2126 2126 2126 2126 2126 2126 2125 2125 2125 2125 2125 2125 2125 2125 2125 2125 2125 2125 2125 2125 2125 2125 2125 2125 2125 2125 2125 2125 2125 2125 2125 2125 2125 2125 2125 2125 2125 2125 1127 1127 1127 1127 1127 1119 1120 1081 1081 1080 1080 256 256 256 256 256 256 256 256 256 256 256 256 256 256 256 256 256 256 256 256 256 256 256 256 256 256 256 256 256 367 366 366 2146 2146 2146 2146 2146 2146 2146 2146 2146 2146 2146 2146 2146 2146 2146 2146 2146 2146 2146 2146 2146 246 246 246 246 246 246 246 246 246 246 246 246 246 246 246 246 246 246 246 246 246 246 246 246 246 246 246 246 246 246 244 244 244 244 244 244 244 244 244 244 244 244 244 244 244 244 244 244 244 244 244 1209 1227 1227 1227 1227 1227 1219 1219 1181 1181 1181 1180 243 243 243 243 243 243 243 243 243 243 243 243 243 243 243 243 236 236 236 236 236 236 236 236 236 236 236 236 236 236 236 236 236 236 236 236 236 236 235 235 235 235 235 235 235 235 235 235 235 235 235 235 235 235 235 235 235 235 235 235 235 235 235 235 235 235 235 235 235 235 235 235 235 235 235 235 235 235 235 235 235 235 235 235 235 235 235 235 235 235 235 235 235 274 274 274 274 274 274 274 274 274 274 274 274 274 274 274 1322 1321 1321 1321 1321 1321 1321 1321 1321 1321 1321 1321 1321 1321 1321 1311 1311 1311 1299 1299 1299 1299 1299 1299 1299 1299 1299 1299 1299 1299 1299 1299 1299 1299 1299 1299 1299 1300 1324 1324 1324 1324 1324 1324 1324 1324 1323 1323 1323 1323 1288 1288 1288 1288 1288 1287 1369 1369 1479 1479 1479 1479 1479 1479 1479 1479 1479 1479 1479 1479 2477 2478 2478 2479 2479 2480 2480 2481 2481 2482 2482 2482 2483 2484 2484 2484 2486 2486 2486 2487 2488 2488 2490 2490 2492 2644 2644 2492 2492 2492 2492 2492 2492 2492 2492 2492 2492 2492 2492 2492 2492 2493 2493 2493 2493 2493 2494 2494 2494 2494 2494 0 0 0 0 0 0 0 0 0 0 0 0 0
0 0 0 0 0 0 0 0 0 0 0 0 0 0 0 0 0 0 0 0 0 0 0 0 0 0 0 0 0 0 0 0 0 0 0 0 0 0 0 0 0 0 0 0 0 0 0 0 0 0 0 568 568 568 568 567 567 567 567 567 567 567 567 567 567 567 567 567 567 567 567 567 567 567 567 567 567 567 567 567 567 567 567 567 567 567 567 567 567 567 567 567 567 567 518 518 518 518 518 518 518 518 518 518 517 517 517 517 517 517 517 517 517 517 517 517 517 517 517 517 517 517 517 517 517 517 1025 1026 1026 1018 980 980 980 980 980 980 980 258 258 258 258 258 258 258 258 258 258 258 258 258 258 258 258 258 258 254 254 254 254 254 254 254 254 254 307 306 306 2126 2126 2126 2126 2126 2126 2126 2126 2126 2126 2126 2126 2126 2126 2126 2126 2126 2126 2126 2126 2126 2126 2126 2126 2126 2126 2126 2126 2126 2126 2126 2126 2126 2126 2126 2126 2126 2126 2126 2126 2125 2125 2125 2125 2125 2125 2125 2125 2125 2125 2125 2125 2125 2125 2125 2125 2125 2125 2125 2125 2125 2125 2125 2125 2125 1126 1126 1126 1126 1119 1119 1081 1080 1080 1080 1080 256 256 256 256 256 256 256 256 256 256 256 256 256 256 256 256 256 256 256 256 256 256 256 256 256 256 256 256 256 367 366 366 2146 2146 2146 2146 2146 2146 2146 2146 2146 2146 2146 2146 2146 2146 2146 2146 2146 2146 2146 2146 2146 2146 2146 2146 2146 2146 2146 2146 2146 2146 2146 2145 2145 2145 2145 2145 2145 2145 2145 2145 2145 2145 2145 2145 2145 2145 2145 2145 2145 2145 2145 2145 2145 2145 2145 2145 2145 2145 2145 2145 2145 2145 2145 2145 2145 2145 2145 2145 241 241 242 1207 1227 1227 1227 1227 1227 1227 1219 1220 1181 1181 1180 1180 242 242 242 242 242 242 242 242 242 242 242 242 242 242 243 243 243 243 243 243 243 243 243 243 236 236 236 236 236 236 236 236 236 236 236 236 236 236 236 236 236 236 236 236 236 236 236 236 236 236 236 236 236 236 236 236 236 236 236 236 236 236 236 236 236 236 236 236 235 235 235 235 235 235 235 235 235 235 235 235 235 235 235 235 235 235 235 235 235 235 235 235 235 235 235 235 235 235 235 235 235 235 235 235 235 234 234 234 1320 1320 1320 1321 1321 1321 1321 1321 1321 1321 1321 1321 1321 1321 1311 1311 1311 1297 1298 1298 1298 1298 1298 1298 1298 1298 1298 1298 1298 1298 1298 1298 1298 1298 1298 1298 1298 1324 1324 1324 1324 1324 1324 1324 1324 1323 1323 1323 1323 1288 1288 1288 1288 1288 1287 1369 1369 1478 1478 1478 1478 1478 1478 1478 1478 1478 1478 1478 1478 2477 2477 2478 2479 2479 2480 2480 2481 2481 2482 2482 2482 2483 2483 2484 2484 2486 2486 2486 2487 2488 2488 2490 2490 2492 2492 2645 2645 2492 2492 2492 2492 2492 2492 2492 2492 2492 2492 2492 2492 2492 2493 2493 2493 2493 2493 2494 2494 2494 2494 2494 0 0 0 0 0 0 0 0 0 0 0 0 0
0 0 0 0 0 0 0 0 0 0 0 0 0 0 0 0 0 0 0 0 0 0 0 0 0 0 0 0 0 0 0 0 0 0 0 0 0 0 0 0 0 0 0 0 0 0 0 0 0 0 0 0 545 545 546 546 546 546 546 546 546 546 546 546 546 546 546 546 546 546 546 546 567 567 567 567 567 567 567 567 567 567 567 567 567 567 567 567 567 567 567 567 567 567 518 518 518 517 517 517 517 517 517 517 517 517 517 517 517 517 517 517 517 517 517 517 517 517 517 517 517 517 517 517 517 517 517 1025 1026 1026 1018 979 979 980 980 980 980 980 258 258 258 258 258 258 258 258 258 258 258 258 258 258 258 254 254 254 254 254 254 254 254 254 254 254 254 307 307 306 2126 2126 2126 2126 2126 2126 2126 2126 2126 2126 2126 2126 2126 2126 2126 2126 2126 2126 2126 2126 2126 2126 2126 2126 2126 2126 2126 2126 2126 2126 2126 2126 2126 2126 2126 2126 2126 2126 2126 2126 2126 2126 2126 2126 2126 2126 2126 2125 2125 2125 2125 2125 2125 2125 2125 2125 2125 2125 2125 2125 2125 2125 2125 2125 1125 1126 1126 1126 1119 1119 1081 1080 1080 1080 1080 1080 255 256 256 256 256 256 256 256 256 256 256 256 256 256 256 256 256 256 256 256 256 256 256 256 256 256 256 256 256 367 366 2146 2146 2146 2146 2146 2146 2146 2146 2146 2146 2146 2146 2146 2146 2146 2146 2146 2146 2146 2146 2146 2146 2146 2146 2146 2146 2146 2146 2146 2146 2146 2146 2146 2146 2146 2146 2146 2146 2146 2145 2145 2145 2145 2145 2145 2145 2145 2145 2145 2145 2145 2145 2145 2145 2145 2145 2145 2145 2145 2145 2145 2145 2145 2145 2145 2145 2145 2145 2145 241 241 241 1225 1226 1226 1226 1226 1226 1219 1219 1181 1180 1180 1180 242 242 242 242 242 242 242 242 242 242 242 242 242 242 242 242 242 242 242 242 242 242 242 242 242 242 429 2166 2166 2166 2166 2166 2166 2166 2166 2166 2166 2166 2166 2166 2166 2166 2166 2166 2166 2166 2166 2166 2166 2166 2166 2166 2166 2166 2166 2166 2166 2165 2165 2165 2165 2165 2165 2165 2165 2165 2165 2165 2165 2165 2165 2165 2165 2165 2165 2165 2165 2165 2165 2165 2165 2165 2165 2165 2165 2165 2165 2165 2165 2165 2165 2165 2165 236 236 236 236 236 236 235 235 235 235 234 234 234 234 234 1320 1320 1320 1320 1320 1320 1320 1320 1321 1321 1321 1321 1321 1321 1311 1311 1310 1309 1297 1297 1298 1298 1298 1298 1298 1298 1298 1298 1298 1298 1298 1298 1298 1298 1298 1298 1298 1298 1276 1324 1324 1324 1324 1324 1324 1324 1323 1323 1323 1288 1288 1288 1288 1288 1287 1369 1369 1478 1478 1478 1478 1478 1478 1478 1478 1478 1478 1478 1478 2477 2477 2478 2479 2479 2480 2480 2480 2481 2482 2482 2482 2482 2483 2484 2484 2486 2486 2486 2486 2488 2488 2490 2490 2492 2492 2492 2645 2492 2492 2492 2492 2492 2492 2492 2492 2492 2492 2492 2492 2492 2493 2493 2493 2493 2493 2494 2494 2494 2494 2494 0 0 0 0 0 0 0 0 0 0 0 0 0
0 0 0 0 0 0 0 0 0 0 0 0 0 0 0 0 0 0 0 0 0 0 0 0 0 0 0 0 0 0 0 0 0 0 0 0 0 0 0 0 0 0 0 0 0 0 0 0 0 0 0 0 0 0 545 545 545 545 545 545 545 545 546 546 546 546 546 546 546 546 546 546 546 546 546 546 546 546 546 546 546 546 546 546 546 546 546 546 546 546 546 546 546 546 546 546 472 472 472 472 472 472 472 472 473 473 473 473 473 473 473 473 473 473 473 473 473 473 473 473 473 473 473 473 473 473 473 473 1025 1025 1017 1018 979 979 979 980 980 980 980 258 258 258 258 258 258 258 258 258 258 258 254 254 254 254 254 254 254 254 254 254 254 254 254 254 254 254 307 307 306 2126 2126 2126 2126 2126 2126 2126 2126 2126 2126 2126 2126 2126 2126 2126 2126 2126 2126 2126 2126 2126 2126 2126 2126 2126 2126 2126 2126 2126 2126 2126 2126 2126 2126 2126 2126 2126 2126 2126 2126 2126 2126 2126 2126 2126 2126 2126 2126 2126 2126 2126 2126 2126 2126 2126 2125 2125 2125 2125 2125 2125 2125 2125 2125 1125 1125 1126 1126 1118 1118 1079 1080 1080 1080 1080 1080 255 255 255 255 255 256 256 256 256 256 256 256 256 256 256 256 256 256 256 256 256 256 256 256 256 256 256 256 256 367 366 2146 2146 2146 2146 2146 2146 2146 2146 2146 2146 2146 2146 2146 2146 2146 2146 2146 2146 2146 2146 2146 2146 2146 2146 2146 2146 2146 2146 2146 2146 2146 2146 2146 2146 2146 2146 2146 2146 2146 2146 2146 2146 2146 2146 2146 2146 2145 2145 2145 2145 2145 2145 2145 2145 2145 2145 2145 2145 2145 2145 2145 2145 2145 2145 2145 2145 2145 2145 2145 241 241 241 1225 1226 1226 1226 1226 1219 1219 1181 1180 1180 1180 1180 242 242 242 242 242 242 242 242 242 242 242 242 242 242 242 242 242 242 242 242 242 242 242 242 242 430 429 2166 2166 2166 2166 2166 2166 2166 2166 2166 2166 2166 2166 2166 2166 2166 2166 2166 2166 2166 2166 2166 2166 2166 2166 2166 2166 2166 2166 2166 2166 2166 2166 2166 2166 2166 2166 2166 2166 2165 2165 2165 2165 2165 2165 2165 2165 2165 2165 2165 2165 2165 2165 2165 2165 2165 2165 2165 2165 2165 2165 2165 2165 2165 2165 2165 2165 2165 2165 2165 2165 2165 2165 2165 2165 2165 234 234 234 234 234 234 1320 1320 1320 1320 1320 1320 1320 1320 1320 1320 1320 1321 1321 1311 1310 1310 1310 1297 1297 1297 1297 1298 1298 1298 1298 1298 1298 1298 1298 1298 1298 1298 1298 1298 1298 1298 1298 1275 1276 1324 1324 1324 1324 1324 1324 1323 1323 1323 1288 1288 1288 1288 1287 1287 1369 1369 1478 1478 1478 1478 1478 1478 1478 1478 1478 1478 1478 1478 1477 2477 2478 2479 2479 2480 2480 2480 2481 2482 2482 2482 2482 2483 2484 2484 2486 2486 2486 2486 2488 2488 2490 2490 2492 2492 2492 2492 2640 2492 2492 2492 2492 2492 2492 2492 2492 2492 2492 2492 2492 2493 2493 2493 2493 2493 2494 2494 2494 2494 2494 0 0 0 0 0 0 0 0 0 0 0 0 0
0 0 0 0 0 0 0 0 0 0 0 0 0 0 0 0 0 0 0 0 0 0 0 0 0 0 0 0 0 0 0 0 0 0 0 0 0 0 0 0 0 0 0 0 0 0 0 0 0 0 0 0 0 0 0 0 545 545 545 545 545 545 545 545 545 545 545 545 545 545 545 546 546 546 546 546 546 546 546 546 546 546 546 546 546 546 546 546 546 546 546 546 546 546 546 546 546 546 472 472 472 472 472 472 472 472 472 472 472 472 472 472 472 472 472 472 472 472 472 473 473 473 473 473 473 473 473 473 1025 1025 1025 1017 1018 979 979 979 979 980 980 980 258 258 258 258 258 258 258 258 254 254 254 254 254 254 254 254 254 254 254 254 254 254 254 254 254 254 254 307 307 308 308 308 2127 2127 2127 2127 2127 2127 2127 2127 2127 2127 2127 2127 2127 2127 2126 2126 2126 2126 2126 2126 2126 2126 2126 2126 2126 2126 2126 2126 2126 2126 2126 2126 2126 2126 2126 2126 2126 2126 2126 2126 2126 2126 2126 2126 2126 2126 2126 2126 2126 2126 2126 2126 2126 2126 2126 2126 2126 2126 2126 2126 2125 2125 1125 1125 1126 1126 1118 1118 1079 1080 1080 1080 1080 1080 255 255 255 255 255 255 255 255 255 256 256 256 256 256 256 256 256 256 256 256 256 256 256 256 256 256 256 256 367 367 366 2146 2146 2146 2146 2146 2146 2146 2146 2146 2146 2146 2146 2146 2146 2146 2146 2146 2146 2146 2146 2146 2146 2146 2146 2146 2146 2146 2146 2146 2146 2146 2146 2146 2146 2146 2146 2146 2146 2146 2146 2146 2146 2146 2146 2146 2146 2146 2146 2146 2146 2146 2146 2146 2145 2145 2145 2145 2145 2145 2145 2145 2145 2145 2145 2145 2145 2145 2145 241 241 241 1208 1225 1226 1226 1226 1218 1218 1180 1180 1180 1180 1180 242 242 242 242 242 242 242 242 242 242 242 242 242 242 242 242 242 242 242 242 242 242 242 242 242 242 430 429 2166 2166 2166 2166 2166 2166 2166 2166 2166 2166 2166 2166 2166 2166 2166 2166 2166 2166 2166 2166 2166 2166 2166 2166 2166 2166 2166 2166 2166 2166 2166 2166 2166 2166 2166 2166 2166 2166 2166 2166 2166 2166 2166 2166 2166 2165 2165 2165 2165 2165 2165 2165 2165 2165 2165 2165 2165 2165 2165 2165 2165 2165 2165 2165 2165 2165 2165 2165 2165 2165 2165 2165 2165 2165 232 234 234 234 234 234 1320 1320 1320 1320 1320 1320 1320 1320 1320 1320 1320 1320 1319 1310 1310 1310 1310 1309 1297 1297 1297 1297 1297 1298 1298 1298 1298 1298 1298 1298 1298 1298 1298 1298 1298 1298 1298 1275 1275 1276 1276 1324 1324 1324 1324 1324 1323 1323 1288 1288 1288 1288 1287 1287 1367 1369 1478 1478 1478 1478 1478 1478 1478 1478 1478 1478 1478 1477 1477 2477 2478 2479 2479 2480 2480 2480 2481 2482 2482 2482 2482 2483 2484 2484 2486 2486 2486 2486 2487 2488 2490 2490 2492 2492 2492 2492 2640 2492 2492 2492 2492 2492 2492 2492 2492 2492 2492 2492 2492 2493 2493 2493 2493 2493 2494 2494 2494 2494 2494 0 0 0 0 0 0 0 0 0 0 0 0 0
0 0 0 0 0 0 0 0 0 0 0 0 0 0 0 0 0 0 0 0 0 0 0 0 0 0 0 0 0 0 0 0 0 0 0 0 0 0 0 0 0 0 0 0 0 0 0 0 0 0 0 0 0 0 0 0 0 0 545 545 545 545 545 545 545 545 545 545 545 545 545 545 545 545 545 545 545 545 545 546 546 546 546 546 546 546 546 546 546 546 546 546 546 546 546 546 546 546 546 546 472 472 472 472 472 472 472 472 472 472 472 472 472 472 472 472 472 472 472 472 472 472 472 472 472 472 472 472 472 1025 1025 1025 1017 1018 979 979 979 979 979 980 980 258 258 258 258 258 254 254 254 254 254 254 254 254 254 254 254 254 254 254 254 254 254 254 254 254 254 307 307 308 308 308 308 308 308 308 309 309 311 311 311 311 311 311 311 311 311 311 311 311 311 311 311 311 311 311 311 311 311 311 311 311 311 311 311 311 311 311 311 311 311 311 311 311 2128 2128 2128 2128 2128 2128 2128 2128 2128 2128 2128 2128 2128 2128 2128 2128 2128 2128 2128 2128 2128 1125 1125 1126 1126 1118 1079 1079 1079 1080 1080 1080 255 255 255 255 255 255 255 255 255 255 255 255 255 255 256 256 256 256 256 256 256 256 256 256 256 256 256 256 256 367 367 2146 2146 2146 2146 2146 2146 2146 2146 2146 2146 2146 2146 2146 2146 2146 2146 2146 2146 2146 2146 2146 2146 2146 2146 2146 2146 2146 2146 2146 2146 2146 2146 2146 2146 2146 2146 2146 2146 2146 2146 2146 2146 2146 2146 2146 2146 2146 2146 2146 2146 2146 2146 2146 2146 2146 2146 2146 2146 2146 2146 2146 2145 2145 2145 2145 2145 2145 2145 2145 241 241 241 1225 1225 1226 1226 1226 1218 1218 1179 1180 1180 1180 1180 241 241 241 242 242 242 242 242 242 242 242 242 242 242 242 242 242 242 242 242 242 242 242 242 242 430 429 2166 2166 2166 2166 2166 2166 2166 2166 2166 2166 2166 2166 2166 2166 2166 2166 2166 2166 2166 2166 2166 2166 2166 2166 2166 2166 2166 2166 2166 2166 2166 2166 2166 2166 2166 2166 2166 2166 2166 2166 2166 2166 2166 2166 2166 2166 2166 2166 2166 2166 2166 2166 2166 2165 2165 2165 2165 2165 2165 2165 2165 2165 2165 2165 2165 2165 2165 2165 2165 2165 2165 2165 2165 2165 232 232 234 234 234 234 1320 1320 1320 1320 1320 1320 1320 1320 1320 1320 1320 1319 1319 1319 1310 1310 1310 1309 1297 1297 1297 1297 1297 1297 1297 1297 1298 1298 1298 1298 1298 1298 1298 1298 1298 1298 1298 1298 1275 1276 1276 1276 1324 1324 1324 1324 1323 1323 1323 1288 1288 1287 1287 1287 1287 1369 1369 1478 1478 1478 1478 1478 1478 1478 1478 1478 1478 1477 1477 2477 2478 2478 2479 2480 2480 2480 2481 2482 2482 2482 2482 2483 2484 2484 2486 2486 2486 2486 2487 2488 2490 2490 2491 2492 2492 2492 2640 2641 2492 2492 2492 2492 2492 2492 2492 2492 2492 2492 2492 2493 2493 2493 2493 2493 2493 2494 2494 2494 2494 0 0 0 0 0 0 0 0 0 0 0 0 0
0 0 0 0 0 0 0 0 0 0 0 0 0 0 0 0 0 0 0 0 0 0 0 0 0 0 0 0 0 0 0 0 0 0 0 0 0 0 0 0 0 0 0 0 0 0 0 0 0 0 0 0 0 0 0 0 0 0 0 0 545 545 545 545 545 545 545 545 545 545 545 545 545 545 545 545 545 545 545 545 545 545 545 545 545 545 545 545 546 546 546 546 546 546 546 546 546 546 546 546 546 546 472 472 472 472 472 472 472 472 472 472 472 472 472 472 472 472 472 472 472 472 472 472 472 472 472 472 472 472 1025 1025 1025 1017 1018 979 979 979 979 979 979 980 258 254 254 254 254 254 254 254 254 254 254 254 254 254 254 254 254 254 254 254 254 254 254 254 254 254 307 308 308 308 309 309 309 309 309 309 311 311 311 311 311 311 311 311 311 311 311 311 311 311 311 311 311 311 311 311 311 311 311 311 311 311 311 311 311 311 311 311 311 311 311 311 311 311 311 311 311 311 311 311 311 311 311 310 310 310 310 310 310 310 310 310 310 310 1125 1125 1125 1117 1118 1079 1079 1079 1079 1080 1080 255 255 255 255 255 255 255 255 255 255 255 255 255 255 255 255 255 255 255 256 256 256 256 256 256 256 256 256 256 367 367 368 368 368 368 368 368 2147 2147 2147 2147 2147 2147 2147 2147 2147 2147 2147 2147 2147 2147 2147 2147 2147 2147 2147 2147 2147 2147 2147 2147 2147 2147 2147 2147 2147 2147 2147 2147 2147 2147 2147 2147 2147 2147 2147 2147 2146 2146 2146 2146 2146 2146 2146 2146 2146 2146 2146 2146 2146 2146 2146 2146 2146 2146 2146 2146 2146 2146 241 241 241 1207 1225 1225 1226 1226 1226 1218 1218 1179 1180 1180 1180 1180 241 241 241 241 241 241 241 242 242 242 242 242 242 242 242 242 242 242 242 242 242 242 242 242 242 430 429 2166 2166 2166 2166 2166 2166 2166 2166 2166 2166 2166 2166 2166 2166 2166 2166 2166 2166 2166 2166 2166 2166 2166 2166 2166 2166 2166 2166 2166 2166 2166 2166 2166 2166 2166 2166 2166 2166 2166 2166 2166 2166 2166 2166 2166 2166 2166 2166 2166 2166 2166 2166 2166 2166 2166 2166 2166 2166 2166 2166 2165 2165 2165 2165 2165 2165 2165 2165 2165 2165 2165 2165 2165 2165 232 232 234 234 234 234 1320 1320 1320 1320 1320 1320 1320 1320 1320 1319 1319 1319 1319 1310 1310 1310 1309 1297 1297 1297 1297 1297 1297 1297 1297 1297 1297 1298 1298 1298 1298 1298 1298 1298 1298 1298 1298 1275 1275 1276 1276 1276 1324 1324 1324 1324 1323 1323 1288 1288 1287 1287 1287 1287 1369 1369 1478 1478 1478 1478 1478 1478 1478 1478 1478 1478 1477 1477 2477 2478 2478 2479 2480 2480 2480 2481 2482 2482 2482 2482 2483 2484 2484 2485 2486 2486 2486 2487 2488 2490 2490 2491 2492 2492 2492 2642 2641 2492 2492 2492 2492 2492 2492 2492 2492 2492 2492 2492 2492 2493 2493 2493 2493 2493 2494 2494 2494 2494 0 0 0 0 0 0 0 0 0 0 0 0 0
0 0 0 0 0 0 0 0 0 0 0 0 0 0 0 0 0 0 0 0 0 0 0 0 0 0 0 0 0 0 0 0 0 0 0 0 0 0 0 0 0 0 0 0 0 0 0 0 0 0 0 0 0 0 0 0 0 0 0 0 0 0 545 545 545 545 545 545 545 545 545 545 545 545 545 545 545 545 545 545 545 545 545 545 545 545 545 545 545 545 545 545 545 545 545 545 546 546 546 546 546 546 546 546 472 472 472 472 472 472 472 472 472 472 472 472 472 472 472 472 472 472 472 472 472 472 472 472 472 472 472 1025 1025 1025 1017 1018 979 979 979 979 979 979 978 978 978 978 978 978 978 253 253 253 253 253 253 253 253 253 253 253 252 252 252 252 252 252 252 252 252 252 252 252 252 309 309 309 309 311 311 311 311 311 311 311 311 311 311 311 311 310 310 310 310 310 310 310 310 310 310 310 310 310 310 310 310 310 310 310 310 310 310 310 310 310 310 310 310 310 310 310 310 310 310 310 310 310 310 310 310 310 310 310 310 310 310 310 1125 1125 1125 1125 1117 1118 1079 1079 1079 1079 1079 1080 255 255 255 255 255 255 255 255 255 255 255 255 255 255 255 255 255 255 255 255 255 255 255 256 256 256 256 256 367 367 368 368 368 368 369 369 369 371 371 371 371 371 371 371 371 371 371 371 371 371 371 371 371 371 371 371 371 371 371 371 371 371 371 371 371 371 371 371 371 371 371 371 371 371 371 371 371 371 371 371 371 371 371 371 371 371 371 371 371 371 371 371 371 371 371 371 371 371 371 241 241 241 1225 1225 1225 1226 1226 1217 1218 1179 1179 1179 1180 1180 241 241 241 241 241 241 241 241 241 241 241 241 242 242 242 242 242 242 242 242 242 242 242 242 242 430 430 431 2167 2167 2167 2167 2166 2166 2166 2166 2166 2166 2166 2166 2166 2166 2166 2166 2166 2166 2166 2166 2166 2166 2166 2166 2166 2166 2166 2166 2166 2166 2166 2166 2166 2166 2166 2166 2166 2166 2166 2166 2166 2166 2166 2166 2166 2166 2166 2166 2166 2166 2166 2166 2166 2166 2166 2166 2166 2166 2166 2166 2166 2166 2166 2166 2166 2166 2166 2165 2165 2165 2165 2165 2165 232 232 232 234 234 234 1320 1320 1320 1320 1320 1320 1320 1319 1319 1319 1319 1319 1319 1319 1310 1310 1309 1309 1297 1297 1297 1297 1297 1297 1297 1297 1297 1297 1297 1298 1298 1298 1298 1298 1298 1298 1298 1275 1275 1275 1276 1276 1276 1276 1324 1324 1323 1323 1288 1288 1287 1287 1287 1287 1366 1366 1478 1478 1478 1478 1478 1478 1478 1478 1478 1478 1477 1477 2477 2478 2478 2479 2480 2480 2480 2481 2481 2482 2482 2482 2483 2484 2484 2485 2486 2486 2486 2487 2488 2489 2490 2490 2492 2492 2492 2642 2641 2492 2492 2492 2492 2492 2492 2492 2492 2492 2492 2492 2492 2493 2493 2493 2493 2493 2494 2494 2494 2494 0 0 0 0 0 0 0 0 0 0 0 0 0
0 0 0 0 0 0 0 0 0 0 0 0 0 0 0 0 0 0 0 0 0 0 0 0 0 0 0 0 0 0 0 0 0 0 0 0 0 0 0 0 0 0 0 0 0 0 0 0 0 0 0 0 0 0 0 0 0 0 0 0 0 0 0 0 0 0 0 0 0 0 0 0 0 549 549 549 549 549 549 549 549 549 549 549 549 549 549 549 549 549 549 549 549 549 549 549 549 549 549 549 545 545 545 545 545 546 472 472 472 472 472 472 472 472 472 472 472 472 472 472 472 472 472 472 472 472 472 472 472 472 472 472 1025 1025 1025 1017 1018 979 979 979 979 979 978 978 978 978 978 978 978 978 978 977 977 976 976 975 975 472 472 472 472 472 472 472 472 2552 2552 2553 2553 2565 2565 2565 2565 2565 2565 2565 2565 2565 2565 2565 2565 2565 2565 2566 2566 2566 2566 2566 2566 2566 2566 2566 2566 2566 2566 2566 2566 2566 2754 2557 2556 2556 2564 2564 2564 2563 2563 248 248 248 248 248 248 248 248 250 250 250 250 250 250 250 310 310 310 310 310 310 310 310 310 310 310 310 310 310 310 1125 1125 1125 1125 1117 1118 1079 1079 1079 1079 1079 1080 251 251 251 251 251 251 251 251 255 255 255 255 255 255 255 255 255 255 255 255 255 255 255 255 255 255 255 256 368 369 369 369 369 369 369 371 371 371 371 371 371 371 371 371 371 371 371 371 371 371 371 371 371 371 371 371 371 371 371 371 371 371 371 371 371 371 371 371 371 371 371 370 370 370 370 370 370 370 370 370 370 370 370 370 370 370 370 370 370 370 370 370 370 370 370 370 370 370 370 241 241 241 1225 1225 1225 1225 1226 1218 1218 1179 1179 1179 1180 1180 241 241 241 241 241 241 241 241 241 241 241 241 241 241 241 241 242 242 242 242 242 242 242 242 242 430 431 431 431 431 432 434 434 434 434 434 434 434 434 434 434 434 434 434 434 434 434 434 434 434 434 434 434 434 434 434 434 2168 2168 2168 2168 2168 2168 2168 2168 2168 2168 2168 2168 2168 2168 2168 2168 2168 2168 2168 2168 2168 2168 2168 2168 2168 2168 2168 2168 2168 2168 2168 2168 2168 2168 2168 2168 2168 2168 2168 2168 2167 2167 2167 2166 232 232 232 234 234 234 1320 1320 1320 1320 1320 1319 1319 1319 1319 1319 1319 1319 1319 1310 1310 1309 1309 1297 1297 1297 1297 1297 1297 1297 1297 1297 1297 1297 1297 1297 1298 1298 1298 1298 1298 1298 1298 1275 1275 1275 1276 1276 1276 1276 1324 1324 1323 1288 1287 1287 1287 1287 1287 1366 1366 1478 1478 1478 1478 1478 1478 1478 1478 1478 1477 1477 1477 2477 2478 2478 2479 2479 2480 2480 2481 2481 2482 2482 2482 2483 2484 2484 2484 2486 2486 2486 2487 2488 2488 2490 2490 2492 2492 2492 2642 2642 2492 2492 2492 2492 2492 2492 2492 2492 2492 2492 2492 2492 2493 2493 2493 2493 2493 2494 2494 2494 2494 0 0 0 0 0 0 0 0 0 0 0 0 0
0 0 0 0 0 0 0 0 0 0 0 0 0 0 0 0 0 0 0 0 0 0 0 0 0 0 0 0 0 0 0 0 0 0 0 0 0 0 0 0 0 0 0 0 0 0 0 0 0 0 0 0 0 0 0 0 0 0 0 0 0 0 0 0 0 0 0 0 0 0 0 0 0 0 0 549 549 549 549 549 549 549 549 549 549 549 549 549 549 549 549 549 549 549 549 549 549 549 549 549 549 549 549 549 549 549 549 549 549 550 550 550 550 550 550 550 482 482 482 482 482 482 482 482 482 482 482 482 482 482 482 482 482 1025 1025 1025 1017 1017 979 979 979 978 978 978 978 978 978 978 977 977 977 977 976 976 975 975 481 481 481 481 481 472 472 472 472 2552 2552 2553 2553 2565 2565 2565 2565 2565 2565 2565 2565 2565 2565 2565 2565 2565 2566 2566 2566 2566 2566 2566 2566 2566 2566 2566 2566 2566 2566 2566 2566 2566 2754 2557 2556 2556 2564 2564 2564 2564 2563 2563 2563 2563 2563 2563 2563 2563 2563 2563 2563 2563 2563 2563 2563 2563 2563 2563 2563 2563 2563 2563 2563 2563 105 1894 1894 1894 1894 1894 1894 1894 1125 1125 1125 1125 1117 1118 1079 1079 1079 1079 1079 1078 1078 1078 1078 1078 1078 1078 1122 1089 1076 1076 1075 2544 2544 2544 2544 2544 2544 2544 2544 2544 2545 2545 2545 2545 2545 2545 2545 2545 2545 238 245 245 245 245 245 245 245 370 370 370 370 370 370 370 370 370 370 370 370 370 370 370 370 370 370 370 370 370 370 370 370 370 370 370 370 370 370 370 370 370 370 370 370 370 370 370 370 370 370 370 370 370 370 370 370 370 370 370 370 370 370 370 370 370 370 370 370 370 241 241 241 1207 1225 1225 1225 1225 1217 1218 1179 1179 1179 1179 1180 241 241 241 241 241 241 241 241 241 241 241 241 241 241 241 241 241 241 241 241 241 242 242 242 242 430 431 431 432 432 432 434 434 434 434 434 434 434 434 434 434 434 434 434 434 434 434 434 434 434 434 434 434 434 434 434 434 434 434 434 434 434 434 434 434 434 434 434 434 434 434 434 434 434 434 434 434 434 434 434 434 434 434 434 434 434 434 434 434 434 434 434 434 434 434 433 433 433 433 433 433 232 232 232 232 234 234 1320 1320 1320 1320 1319 1319 1319 1319 1319 1319 1319 1319 1319 1310 1310 1309 1309 1297 1297 1297 1297 1297 1297 1297 1297 1297 1297 1297 1297 1297 1297 1297 1298 1298 1298 1298 1298 1275 1275 1275 1275 1276 1276 1276 1276 1276 1324 1288 1287 1287 1287 1287 1287 1366 1366 1478 1478 1478 1478 1478 1478 1478 1478 1478 1477 1477 1477 2477 2478 2478 2479 2479 2480 2480 2481 2481 2482 2482 2482 2483 2484 2484 2484 2486 2486 2486 2487 2488 2488 2490 2490 2492 2492 2492 2642 2642 2492 2492 2492 2492 2492 2492 2492 2492 2492 2492 2492 2492 2493 2493 2493 2493 2493 2494 2494 2494 2494 0 0 0 0 0 0 0 0 0 0 0 0 0
0 0 0 0 0 0 0 0 0 0 0 0 0 0 0 0 0 0 0 0 0 0 0 0 0 0 0 0 0 0 0 0 0 0 0 0 0 0 0 0 0 0 0 0 0 0 0 0 0 0 0 0 0 0 0 0 0 0 0 0 0 0 0 0 0 0 0 0 0 0 0 0 0 0 0 0 0 0 0 0 0 0 0 0 0 0 0 0 0 0 0 0 0 0 0 0 0 0 0 0 0 566 566 566 566 566 566 566 566 566 566 566 566 566 566 566 566 566 566 566 565 511 482 482 482 482 482 482 482 482 482 482 482 482 482 482 482 1017 1017 979 979 978 978 978 978 977 977 977 977 977 977 977 976 976 975 482 482 481 481 481 481 481 481 481 481 2552 2552 2553 2553 2565 2565 2565 2565 2565 2565 2565 2565 2565 2565 2565 2565 2566 2566 2566 2566 2566 2566 2566 2566 2566 2566 2566 2566 2566 2566 2566 2566 2566 2754 2557 2556 2556 2564 2564 2564 2564 2563 2563 2563 2563 2563 2563 2563 2563 2563 2563 2563 2563 2563 2563 2563 2563 2563 2563 2563 2563 2563 2563 2563 2563 105 105 1894 1894 1894 1894 1894 1894 1894 1125 1125 1125 1125 1117 1079 1079 1079 1079 1078 1078 1078 1078 1078 1078 1078 1077 1077 1076 1076 1075 2544 2544 2544 2544 2544 2544 2544 2544 2544 2545 2545 2545 2545 2545 2545 2545 2545 2545 2545 2545 2545 2545 2545 2545 2545 2545 2543 2542 2542 2542 2542 2542 2542 2542 2542 2542 2542 2542 2542 2542 2542 2542 2542 2542 2542 2542 2542 2542 2542 2542 2542 2542 2542 89 89 89 89 89 89 89 88 88 1923 1923 1923 1923 1923 1923 1923 1923 1923 1923 1923 1923 1923 1923 1923 1923 1923 1923 1923 1923 2602 2602 238 238 238 238 238 238 238 370 1225 1225 1225 1225 1225 1217 1218 1179 1179 1179 1179 1179 240 240 240 240 240 240 240 240 240 240 240 240 240 240 240 240 240 240 240 240 240 240 240 241 241 432 432 432 432 432 434 434 434 434 434 434 434 434 434 434 434 434 434 434 434 434 434 434 434 434 434 434 434 434 434 434 433 433 433 433 433 433 433 433 433 433 433 433 433 433 433 433 433 433 433 433 433 433 433 433 433 433 433 433 433 433 433 433 433 433 433 433 433 433 433 433 433 433 433 433 232 232 232 232 232 234 1320 1320 1320 1319 1319 1319 1319 1319 1319 1319 1319 1319 1319 1319 1310 1309 1309 1309 1297 1297 1297 1297 1297 1297 1297 1297 1297 1297 1297 1297 1297 1297 1297 1297 1298 1298 1298 1275 1275 1275 1275 1276 1276 1276 1276 1276 1276 1287 1287 1287 1287 1287 1287 1287 1365 1478 1478 1478 1478 1478 1478 1478 1478 1478 1477 1477 1477 1477 2478 2478 2479 2479 2480 2480 2480 2481 2482 2482 2482 2482 2484 2484 2484 2486 2486 2486 2487 2488 2488 2490 2490 2492 2492 2492 2643 2643 2492 2492 2492 2492 2492 2492 2492 2492 2492 2492 2492 2492 2493 2493 2493 2493 2493 2494 2494 2494 2494 0 0 0 0 0 0 0 0 0 0 0 0 0
0 0 0 0 0 0 0 0 0 0 0 0 0 0 0 0 0 0 0 0 0 0 0 0 0 0 0 0 0 0 0 0 0 0 0 0 0 0 0 0 0 0 0 0 0 0 0 0 0 0 0 0 0 0 0 0 0 0 0 0 0 0 0 0 0 0 0 0 0 0 0 0 0 0 0 0 0 0 0 0 0 0 0 0 0 0 0 0 0 0 0 0 0 0 0 0 0 0 0 0 0 566 566 566 566 566 566 566 566 566 566 566 566 566 566 566 566 566 565 565 565 565 565 565 565 565 565 565 565 565 565 565 565 565 565 565 565 565 1017 1017 979 978 977 977 977 977 977 977 977 977 977 977 976 514 514 514 514 514 514 514 514 514 513 513 479 2552 2552 2553 2553 2565 2565 2565 2565 2565 2565 2565 2565 2565 2565 2565 2566 2566 2566 2566 2566 2566 2566 2566 2566 2566 2566 2566 2566 2566 2566 2566 2566 2566 2585 2585 2585 2585 2564 2564 2564 2564 2564 2563 2563 2563 2563 2563 2563 2563 2563 2563 2563 2563 2563 2563 2563 2563 2563 2563 2563 2563 2563 2563 2563 2563 105 105 105 105 1894 1894 1894 1894 1894 1894 1894 1123 1124 1117 1117 1079 1079 1079 1078 1078 1078 1078 1078 1077 1077 1077 1077 1076 1076 2544 2544 2544 2544 2544 2544 2544 2544 2544 2545 2545 2545 2545 2545 2545 2545 2545 2545 2545 2545 2545 2545 2545 2545 2545 2545 2545 2543 2543 2542 2542 2542 2542 2542 2542 2542 2542 2542 2542 2542 2542 2542 2542 2542 2542 2542 2542 2542 2542 2542 2542 2542 2542 89 89 89 89 89 89 89 89 89 89 1923 1923 1923 1923 1923 1923 1923 1923 1923 1923 1923 1923 1923 1923 1923 1923 1923 1923 1923 1923 2602 2602 2603 2603 2615 2615 2615 2615 2615 2615 2615 1225 1225 1225 1225 1225 1217 1218 1179 1179 1179 1179 1178 1178 1178 1178 1178 1178 1176 1176 1175 2616 2616 2616 2616 2616 2616 2613 2613 2613 2613 2613 2613 2613 2613 2613 2613 2613 2613 2613 2613 2613 2613 2613 2613 2613 2613 2613 736 736 88 88 88 88 88 88 229 229 229 233 233 233 233 233 433 433 433 433 433 433 433 433 433 433 433 433 433 433 433 433 433 433 433 433 433 433 433 433 433 433 433 433 433 433 433 433 433 433 433 433 433 433 433 433 433 433 433 433 433 433 433 433 433 232 232 232 232 232 232 1319 1319 1319 1319 1319 1319 1319 1319 1319 1319 1319 1319 1319 1310 1309 1309 1309 1297 1297 1297 1297 1297 1297 1297 1297 1297 1297 1297 1297 1297 1297 1297 1297 1297 1297 1298 1298 1275 1275 1275 1275 1276 1276 1276 1276 1276 1276 1286 1286 1286 1286 1286 1286 1286 1478 1478 1478 1478 1478 1478 1478 1478 1478 1477 1477 1477 1477 2478 2478 2479 2479 2480 2480 2480 2481 2482 2482 2482 2482 2484 2484 2484 2486 2486 2486 2486 2488 2488 2490 2490 2492 2492 2588 2643 2643 2492 2492 2492 2492 2492 2492 2492 2492 2492 2492 2492 2492 2493 2493 2493 2493 2493 2494 2494 2494 2494 0 0 0 0 0 0 0 0 0 0 0 0 0
